51.0,50.0,49.0,49.0,48.0,47.0,47.0,46.0,46.0,46.0,46.0,46.0,46.0,46.0,46.0,46.0,46.0,47.0,47.0,48.0,48.0,47.0,48.0,48.0,48.0,48.0,48.0,48.0,48.0,48.0,48.0,48.0,49.0,49.0,49.0,50.0,50.0,50.0,50.0,50.0,50.0,51.0,51.0,50.0,51.0,51.0,51.0,50.0,51.0,51.0,50.0,50.0,51.0,50.0,51.0,51.0,51.0,51.0,51.0,51.0,51.0,50.0,50.0,50.0,0.0,0.0,0.0,0.0,0.0,0.0,0.0,0.0,0.0,0.0,0.0,0.0,0.0,52.0,52.0,52.0,52.0,51.0,51.0,51.0,51.0,52.0,52.0,51.0,53.0,52.0,51.0,53.0,0.0,0.0,0.0,0.0,0.0,38.0,38.0,38.0,38.0,38.0,38.0,38.0,38.0,38.0,38.0,38.0,38.0,38.0,38.0,38.0,0.0,0.0,0.0,0.0,0.0,0.0,0.0,0.0,0.0,0.0,0.0,0.0,0.0,0.0,0.0,0.0,0.0,0.0,0.0,39.0,39.0,39.0,39.0,38.0,38.0,38.0,38.0,38.0,38.0,38.0,54.0,54.0,54.0,54.0,54.0,54.0,54.0,54.0,54.0,54.0,54.0,55.0,55.0,55.0,55.0,55.0,55.0,55.0,56.0,56.0,56.0,56.0,56.0,57.0,57.0,57.0,57.0,57.0,57.0,58.0,58.0,58.0,58.0,59.0,59.0,59.0,59.0,59.0,60.0,59.0,59.0,59.0,59.0,59.0,59.0,59.0,58.0,58.0,58.0,59.0,59.0,59.0,59.0,59.0,58.0,58.0,58.0,58.0,58.0,58.0,58.0,58.0,58.0,58.0,58.0,58.0,58.0,58.0,58.0,58.0,58.0,58.0,58.0,58.0,58.0,58.0,58.0,58.0,59.0,59.0,59.0,59.0,59.0,59.0,59.0,58.0,58.0,58.0,58.0,58.0,58.0,57.0,57.0,57.0,57.0,57.0,57.0,57.0,57.0,56.0,56.0,56.0,56.0,56.0,56.0,56.0,56.0,56.0,56.0,56.0,56.0,56.0,56.0,56.0,56.0,57.0,57.0,57.0,57.0,57.0,57.0,57.0,57.0,57.0,57.0,57.0,57.0,58.0,58.0,57.0,57.0,58.0,57.0,57.0,58.0,58.0,58.0,58.0,58.0,58.0,58.0,58.0,58.0,59.0,58.0,58.0,58.0,58.0,58.0,58.0,58.0,58.0,58.0,59.0,59.0,59.0,59.0,59.0,59.0,59.0,59.0,59.0,59.0,60.0,60.0,60.0,60.0,61.0,61.0,61.0,0.0,0.0,0.0,0.0,0.0,0.0,0.0,0.0
51.0,50.0,50.0,49.0,48.0,47.0,47.0,46.0,46.0,46.0,46.0,46.0,46.0,46.0,46.0,47.0,47.0,47.0,47.0,48.0,48.0,48.0,48.0,48.0,48.0,48.0,48.0,48.0,48.0,48.0,48.0,48.0,49.0,49.0,49.0,50.0,50.0,50.0,50.0,50.0,50.0,50.0,50.0,50.0,50.0,51.0,51.0,50.0,50.0,51.0,50.0,50.0,51.0,50.0,51.0,51.0,51.0,51.0,51.0,51.0,51.0,51.0,50.0,50.0,50.0,0.0,0.0,0.0,0.0,0.0,0.0,0.0,0.0,0.0,0.0,0.0,0.0,53.0,52.0,52.0,52.0,51.0,51.0,51.0,51.0,51.0,51.0,49.0,49.0,51.0,51.0,0.0,0.0,0.0,0.0,0.0,0.0,37.0,38.0,38.0,38.0,38.0,38.0,38.0,38.0,38.0,38.0,38.0,38.0,38.0,38.0,38.0,0.0,0.0,0.0,0.0,0.0,0.0,0.0,0.0,0.0,0.0,0.0,0.0,0.0,0.0,0.0,0.0,0.0,0.0,0.0,39.0,39.0,39.0,39.0,38.0,38.0,38.0,38.0,37.0,37.0,37.0,54.0,54.0,54.0,54.0,54.0,54.0,54.0,54.0,54.0,54.0,54.0,55.0,55.0,55.0,55.0,55.0,55.0,55.0,56.0,56.0,56.0,56.0,56.0,56.0,56.0,57.0,57.0,57.0,58.0,58.0,58.0,58.0,58.0,59.0,59.0,59.0,59.0,59.0,59.0,59.0,59.0,59.0,59.0,59.0,59.0,59.0,58.0,59.0,59.0,59.0,58.0,59.0,59.0,58.0,58.0,58.0,58.0,58.0,58.0,58.0,58.0,58.0,58.0,58.0,58.0,59.0,58.0,58.0,58.0,58.0,58.0,58.0,58.0,58.0,58.0,58.0,58.0,59.0,59.0,59.0,59.0,58.0,59.0,58.0,59.0,58.0,58.0,58.0,58.0,58.0,58.0,57.0,57.0,57.0,57.0,57.0,57.0,57.0,57.0,57.0,56.0,56.0,56.0,56.0,56.0,56.0,56.0,56.0,56.0,56.0,56.0,56.0,57.0,57.0,57.0,57.0,57.0,57.0,57.0,57.0,57.0,58.0,58.0,57.0,57.0,57.0,57.0,58.0,58.0,58.0,57.0,58.0,58.0,58.0,58.0,58.0,58.0,58.0,58.0,58.0,58.0,58.0,58.0,59.0,58.0,58.0,58.0,58.0,58.0,58.0,58.0,58.0,58.0,59.0,59.0,59.0,59.0,59.0,59.0,59.0,59.0,59.0,59.0,60.0,60.0,60.0,60.0,61.0,61.0,61.0,0.0,0.0,0.0,0.0,0.0,0.0,0.0,0.0
51.0,50.0,50.0,49.0,48.0,47.0,47.0,46.0,46.0,46.0,46.0,45.0,46.0,46.0,47.0,47.0,47.0,47.0,48.0,48.0,48.0,48.0,48.0,48.0,48.0,48.0,48.0,49.0,49.0,49.0,48.0,48.0,48.0,49.0,49.0,50.0,50.0,50.0,50.0,50.0,50.0,50.0,50.0,51.0,50.0,51.0,51.0,50.0,50.0,51.0,51.0,50.0,51.0,50.0,51.0,51.0,51.0,51.0,51.0,51.0,51.0,51.0,50.0,50.0,51.0,0.0,0.0,53.0,54.0,0.0,0.0,0.0,0.0,0.0,0.0,0.0,0.0,0.0,52.0,52.0,52.0,51.0,51.0,51.0,51.0,50.0,50.0,49.0,49.0,50.0,51.0,0.0,0.0,0.0,0.0,0.0,0.0,37.0,38.0,37.0,37.0,38.0,38.0,38.0,38.0,38.0,38.0,38.0,38.0,38.0,38.0,38.0,0.0,0.0,0.0,0.0,0.0,0.0,0.0,0.0,0.0,0.0,0.0,0.0,0.0,0.0,0.0,0.0,0.0,0.0,0.0,38.0,38.0,38.0,38.0,38.0,38.0,38.0,37.0,37.0,37.0,37.0,37.0,54.0,54.0,54.0,54.0,54.0,54.0,54.0,54.0,54.0,54.0,55.0,55.0,55.0,55.0,55.0,55.0,55.0,56.0,56.0,56.0,57.0,56.0,57.0,57.0,57.0,57.0,58.0,58.0,58.0,58.0,58.0,59.0,59.0,59.0,59.0,59.0,59.0,59.0,59.0,58.0,58.0,58.0,59.0,59.0,59.0,58.0,59.0,59.0,58.0,58.0,58.0,58.0,58.0,58.0,58.0,58.0,58.0,58.0,58.0,58.0,59.0,58.0,59.0,59.0,59.0,59.0,58.0,58.0,58.0,58.0,58.0,58.0,58.0,58.0,58.0,59.0,59.0,59.0,59.0,59.0,58.0,59.0,59.0,59.0,58.0,58.0,58.0,58.0,58.0,57.0,57.0,57.0,57.0,57.0,57.0,57.0,57.0,57.0,57.0,57.0,57.0,56.0,56.0,56.0,56.0,56.0,56.0,56.0,56.0,56.0,56.0,57.0,57.0,57.0,57.0,57.0,57.0,57.0,58.0,58.0,58.0,58.0,57.0,57.0,58.0,58.0,58.0,58.0,57.0,58.0,58.0,57.0,58.0,58.0,58.0,58.0,58.0,58.0,58.0,58.0,58.0,59.0,58.0,58.0,58.0,58.0,58.0,58.0,58.0,58.0,58.0,58.0,58.0,59.0,59.0,59.0,59.0,59.0,59.0,60.0,60.0,59.0,60.0,60.0,60.0,60.0,61.0,61.0,61.0,0.0,0.0,0.0,0.0,0.0,0.0,0.0,0.0
51.0,50.0,50.0,49.0,48.0,47.0,47.0,46.0,46.0,46.0,45.0,46.0,46.0,46.0,47.0,47.0,47.0,47.0,48.0,48.0,48.0,48.0,48.0,48.0,48.0,48.0,48.0,48.0,49.0,49.0,49.0,49.0,49.0,49.0,50.0,50.0,50.0,50.0,50.0,50.0,50.0,50.0,50.0,50.0,50.0,51.0,51.0,50.0,50.0,51.0,50.0,50.0,51.0,50.0,51.0,51.0,51.0,51.0,50.0,51.0,51.0,50.0,51.0,51.0,52.0,53.0,53.0,54.0,54.0,53.0,0.0,0.0,0.0,0.0,0.0,0.0,0.0,0.0,52.0,52.0,52.0,51.0,51.0,50.0,50.0,49.0,49.0,48.0,48.0,48.0,48.0,0.0,0.0,0.0,0.0,0.0,37.0,37.0,37.0,37.0,37.0,37.0,37.0,38.0,38.0,38.0,38.0,38.0,38.0,38.0,38.0,0.0,0.0,0.0,0.0,0.0,0.0,0.0,0.0,0.0,0.0,0.0,0.0,0.0,0.0,0.0,0.0,0.0,0.0,0.0,0.0,38.0,38.0,38.0,38.0,38.0,38.0,37.0,37.0,37.0,37.0,36.0,36.0,0.0,53.0,53.0,54.0,54.0,54.0,54.0,54.0,54.0,54.0,55.0,55.0,55.0,55.0,55.0,55.0,55.0,56.0,56.0,56.0,57.0,57.0,57.0,57.0,57.0,57.0,58.0,58.0,58.0,58.0,59.0,59.0,59.0,59.0,59.0,60.0,60.0,59.0,59.0,58.0,58.0,59.0,59.0,59.0,59.0,59.0,59.0,59.0,58.0,58.0,58.0,58.0,58.0,58.0,58.0,58.0,58.0,58.0,59.0,59.0,59.0,59.0,59.0,59.0,59.0,59.0,58.0,58.0,58.0,58.0,58.0,58.0,59.0,59.0,59.0,59.0,59.0,59.0,59.0,59.0,58.0,58.0,58.0,59.0,58.0,58.0,58.0,58.0,58.0,57.0,57.0,57.0,57.0,57.0,57.0,57.0,57.0,57.0,57.0,57.0,57.0,56.0,56.0,56.0,56.0,56.0,56.0,56.0,56.0,57.0,57.0,57.0,57.0,57.0,57.0,57.0,57.0,57.0,58.0,57.0,57.0,57.0,57.0,57.0,58.0,58.0,58.0,57.0,58.0,58.0,57.0,58.0,58.0,58.0,58.0,58.0,58.0,58.0,58.0,58.0,58.0,58.0,58.0,58.0,58.0,58.0,58.0,58.0,58.0,58.0,58.0,58.0,58.0,59.0,59.0,59.0,59.0,59.0,59.0,60.0,60.0,60.0,60.0,60.0,60.0,60.0,61.0,61.0,61.0,0.0,0.0,0.0,0.0,0.0,0.0,0.0,0.0
51.0,50.0,50.0,49.0,48.0,47.0,47.0,47.0,46.0,46.0,46.0,46.0,46.0,47.0,47.0,47.0,47.0,48.0,47.0,48.0,48.0,48.0,48.0,49.0,49.0,49.0,48.0,48.0,48.0,49.0,49.0,49.0,49.0,49.0,50.0,50.0,50.0,50.0,50.0,50.0,50.0,50.0,50.0,50.0,50.0,50.0,51.0,50.0,50.0,51.0,50.0,50.0,51.0,50.0,51.0,51.0,51.0,51.0,50.0,51.0,51.0,50.0,51.0,51.0,52.0,53.0,52.0,54.0,54.0,53.0,0.0,0.0,0.0,0.0,0.0,0.0,0.0,0.0,52.0,52.0,51.0,50.0,50.0,49.0,49.0,48.0,48.0,48.0,48.0,48.0,48.0,0.0,0.0,0.0,0.0,0.0,37.0,37.0,37.0,37.0,37.0,37.0,37.0,38.0,38.0,38.0,39.0,38.0,38.0,39.0,38.0,0.0,0.0,0.0,0.0,0.0,0.0,0.0,0.0,0.0,0.0,0.0,0.0,0.0,0.0,0.0,0.0,0.0,0.0,0.0,0.0,38.0,38.0,38.0,38.0,38.0,37.0,37.0,36.0,36.0,36.0,36.0,36.0,36.0,53.0,53.0,54.0,54.0,54.0,54.0,54.0,54.0,54.0,55.0,55.0,55.0,55.0,55.0,55.0,55.0,56.0,56.0,56.0,56.0,56.0,57.0,57.0,57.0,58.0,58.0,58.0,58.0,59.0,59.0,59.0,59.0,60.0,60.0,60.0,60.0,60.0,59.0,58.0,58.0,59.0,59.0,59.0,59.0,59.0,59.0,59.0,59.0,58.0,58.0,59.0,59.0,59.0,58.0,58.0,58.0,58.0,59.0,58.0,59.0,59.0,59.0,59.0,59.0,58.0,58.0,58.0,58.0,58.0,58.0,58.0,60.0,59.0,59.0,59.0,59.0,59.0,59.0,59.0,59.0,58.0,59.0,59.0,58.0,58.0,58.0,58.0,58.0,57.0,57.0,57.0,57.0,57.0,57.0,57.0,57.0,57.0,57.0,57.0,57.0,57.0,57.0,57.0,57.0,57.0,57.0,57.0,57.0,57.0,57.0,57.0,57.0,57.0,57.0,57.0,57.0,58.0,58.0,57.0,57.0,57.0,58.0,58.0,58.0,58.0,57.0,58.0,57.0,57.0,57.0,58.0,58.0,58.0,58.0,58.0,59.0,58.0,58.0,58.0,58.0,58.0,58.0,58.0,58.0,58.0,58.0,58.0,59.0,58.0,58.0,58.0,59.0,59.0,59.0,59.0,59.0,59.0,59.0,60.0,60.0,60.0,60.0,61.0,61.0,61.0,61.0,61.0,61.0,0.0,0.0,0.0,0.0,0.0,0.0,0.0,0.0
51.0,51.0,50.0,49.0,48.0,47.0,47.0,46.0,46.0,46.0,46.0,46.0,47.0,47.0,47.0,47.0,48.0,48.0,48.0,48.0,48.0,48.0,48.0,49.0,49.0,49.0,49.0,49.0,49.0,49.0,49.0,49.0,49.0,49.0,50.0,50.0,50.0,50.0,50.0,50.0,50.0,50.0,50.0,50.0,50.0,50.0,51.0,50.0,50.0,51.0,50.0,50.0,51.0,50.0,51.0,51.0,51.0,51.0,51.0,51.0,50.0,51.0,51.0,52.0,52.0,52.0,52.0,53.0,53.0,53.0,0.0,0.0,0.0,0.0,0.0,0.0,0.0,0.0,0.0,0.0,0.0,49.0,48.0,48.0,47.0,48.0,48.0,48.0,48.0,48.0,48.0,0.0,0.0,0.0,0.0,0.0,38.0,38.0,37.0,37.0,37.0,37.0,38.0,38.0,38.0,38.0,39.0,39.0,38.0,38.0,39.0,0.0,0.0,0.0,0.0,0.0,0.0,0.0,0.0,0.0,0.0,0.0,0.0,0.0,0.0,0.0,0.0,0.0,0.0,0.0,38.0,38.0,38.0,38.0,38.0,37.0,37.0,36.0,36.0,36.0,36.0,35.0,35.0,35.0,53.0,54.0,54.0,54.0,54.0,54.0,54.0,54.0,54.0,55.0,55.0,55.0,55.0,55.0,55.0,56.0,56.0,56.0,57.0,56.0,56.0,57.0,57.0,57.0,58.0,58.0,58.0,59.0,59.0,59.0,59.0,59.0,60.0,61.0,61.0,60.0,60.0,59.0,59.0,59.0,59.0,59.0,59.0,59.0,59.0,60.0,59.0,59.0,59.0,58.0,59.0,60.0,59.0,59.0,59.0,59.0,59.0,59.0,59.0,59.0,59.0,59.0,59.0,59.0,59.0,59.0,59.0,59.0,59.0,58.0,57.0,60.0,59.0,59.0,59.0,59.0,59.0,59.0,59.0,59.0,58.0,59.0,58.0,58.0,58.0,58.0,58.0,58.0,57.0,57.0,57.0,57.0,57.0,57.0,57.0,57.0,57.0,57.0,57.0,57.0,57.0,57.0,57.0,57.0,57.0,57.0,57.0,57.0,57.0,57.0,57.0,57.0,57.0,57.0,58.0,58.0,58.0,58.0,57.0,57.0,58.0,58.0,58.0,58.0,58.0,58.0,58.0,57.0,57.0,58.0,58.0,58.0,58.0,58.0,59.0,58.0,58.0,58.0,58.0,58.0,58.0,58.0,58.0,58.0,58.0,58.0,58.0,58.0,58.0,58.0,59.0,59.0,59.0,59.0,59.0,59.0,59.0,59.0,59.0,60.0,60.0,60.0,61.0,61.0,61.0,61.0,61.0,61.0,0.0,0.0,0.0,0.0,0.0,0.0,0.0,0.0
51.0,50.0,50.0,49.0,48.0,48.0,47.0,46.0,47.0,46.0,46.0,46.0,47.0,47.0,47.0,48.0,47.0,48.0,48.0,48.0,48.0,48.0,48.0,49.0,49.0,49.0,49.0,49.0,49.0,49.0,49.0,49.0,49.0,49.0,50.0,50.0,50.0,50.0,50.0,50.0,50.0,50.0,50.0,50.0,50.0,50.0,51.0,51.0,50.0,51.0,50.0,50.0,51.0,51.0,51.0,51.0,51.0,51.0,51.0,51.0,51.0,51.0,52.0,52.0,52.0,52.0,52.0,52.0,53.0,53.0,0.0,0.0,0.0,44.0,0.0,44.0,0.0,45.0,0.0,0.0,48.0,48.0,47.0,47.0,47.0,48.0,48.0,48.0,48.0,48.0,0.0,0.0,0.0,0.0,39.0,37.0,37.0,37.0,37.0,37.0,37.0,37.0,37.0,38.0,38.0,38.0,38.0,38.0,38.0,38.0,38.0,0.0,0.0,0.0,0.0,0.0,0.0,0.0,0.0,0.0,0.0,0.0,0.0,0.0,0.0,0.0,0.0,0.0,0.0,0.0,38.0,38.0,38.0,38.0,38.0,37.0,36.0,36.0,36.0,36.0,35.0,35.0,35.0,35.0,0.0,54.0,54.0,54.0,54.0,54.0,54.0,54.0,54.0,55.0,55.0,55.0,56.0,55.0,56.0,56.0,56.0,56.0,57.0,56.0,57.0,57.0,57.0,58.0,58.0,58.0,58.0,59.0,59.0,59.0,60.0,48.0,49.0,49.0,50.0,50.0,50.0,50.0,50.0,61.0,61.0,60.0,60.0,59.0,50.0,60.0,60.0,60.0,59.0,59.0,59.0,59.0,59.0,59.0,59.0,59.0,60.0,60.0,59.0,59.0,59.0,59.0,59.0,59.0,59.0,59.0,59.0,59.0,58.0,58.0,59.0,59.0,59.0,59.0,59.0,59.0,58.0,59.0,59.0,58.0,58.0,58.0,58.0,58.0,58.0,58.0,57.0,58.0,57.0,57.0,57.0,57.0,57.0,57.0,57.0,57.0,57.0,57.0,57.0,57.0,57.0,58.0,58.0,58.0,57.0,57.0,57.0,57.0,57.0,57.0,57.0,57.0,57.0,58.0,58.0,58.0,58.0,58.0,58.0,58.0,58.0,58.0,58.0,58.0,58.0,58.0,58.0,57.0,58.0,58.0,58.0,58.0,58.0,59.0,59.0,58.0,58.0,58.0,58.0,58.0,58.0,58.0,58.0,58.0,58.0,58.0,58.0,58.0,58.0,58.0,59.0,59.0,59.0,59.0,59.0,59.0,59.0,59.0,59.0,60.0,60.0,60.0,61.0,61.0,61.0,61.0,61.0,61.0,0.0,0.0,0.0,0.0,0.0,0.0,0.0,0.0
51.0,50.0,50.0,49.0,48.0,48.0,47.0,47.0,46.0,46.0,46.0,46.0,46.0,47.0,47.0,47.0,48.0,48.0,48.0,48.0,48.0,48.0,48.0,49.0,49.0,49.0,49.0,49.0,50.0,49.0,49.0,49.0,49.0,50.0,50.0,50.0,50.0,50.0,50.0,50.0,50.0,50.0,50.0,50.0,50.0,50.0,51.0,51.0,50.0,50.0,50.0,50.0,50.0,50.0,51.0,51.0,51.0,51.0,51.0,51.0,51.0,51.0,52.0,52.0,52.0,52.0,52.0,52.0,53.0,0.0,0.0,44.0,44.0,44.0,44.0,44.0,44.0,44.0,44.0,44.0,48.0,47.0,47.0,47.0,47.0,47.0,47.0,47.0,47.0,47.0,46.0,0.0,0.0,0.0,37.0,37.0,37.0,37.0,37.0,37.0,37.0,37.0,37.0,37.0,38.0,38.0,38.0,38.0,38.0,38.0,38.0,0.0,0.0,0.0,0.0,0.0,0.0,0.0,0.0,0.0,0.0,0.0,0.0,0.0,0.0,0.0,0.0,0.0,0.0,0.0,38.0,38.0,37.0,38.0,37.0,37.0,36.0,36.0,35.0,35.0,35.0,35.0,34.0,34.0,34.0,53.0,53.0,54.0,54.0,54.0,54.0,54.0,54.0,54.0,33.0,33.0,33.0,33.0,33.0,56.0,57.0,57.0,57.0,57.0,57.0,57.0,57.0,58.0,57.0,58.0,58.0,58.0,59.0,47.0,47.0,48.0,48.0,49.0,49.0,49.0,50.0,50.0,50.0,49.0,49.0,49.0,49.0,49.0,50.0,49.0,49.0,59.0,59.0,59.0,59.0,59.0,59.0,59.0,60.0,60.0,60.0,60.0,60.0,59.0,59.0,59.0,59.0,59.0,59.0,59.0,59.0,58.0,58.0,58.0,58.0,59.0,59.0,59.0,59.0,59.0,58.0,58.0,59.0,58.0,58.0,58.0,58.0,58.0,58.0,58.0,58.0,58.0,57.0,57.0,57.0,57.0,57.0,57.0,57.0,57.0,57.0,57.0,57.0,57.0,57.0,58.0,58.0,57.0,57.0,57.0,57.0,57.0,57.0,57.0,57.0,57.0,58.0,58.0,58.0,58.0,58.0,58.0,58.0,58.0,57.0,57.0,57.0,58.0,58.0,58.0,57.0,58.0,58.0,58.0,58.0,58.0,58.0,59.0,59.0,58.0,58.0,59.0,58.0,58.0,58.0,58.0,58.0,58.0,58.0,58.0,58.0,58.0,58.0,58.0,59.0,59.0,59.0,59.0,59.0,59.0,59.0,59.0,59.0,60.0,60.0,60.0,61.0,61.0,61.0,61.0,61.0,61.0,0.0,0.0,0.0,0.0,0.0,0.0,0.0,0.0
51.0,50.0,50.0,49.0,49.0,48.0,48.0,47.0,46.0,46.0,46.0,46.0,47.0,47.0,47.0,47.0,48.0,48.0,48.0,48.0,48.0,48.0,48.0,49.0,49.0,49.0,49.0,49.0,50.0,49.0,49.0,49.0,49.0,49.0,50.0,50.0,50.0,50.0,50.0,50.0,50.0,50.0,50.0,50.0,50.0,50.0,50.0,51.0,50.0,50.0,50.0,50.0,50.0,50.0,50.0,51.0,51.0,51.0,51.0,51.0,51.0,51.0,52.0,52.0,52.0,52.0,52.0,51.0,51.0,0.0,0.0,44.0,44.0,44.0,43.0,44.0,43.0,44.0,43.0,0.0,47.0,47.0,47.0,47.0,47.0,47.0,47.0,47.0,47.0,46.0,46.0,46.0,0.0,0.0,0.0,37.0,36.0,37.0,37.0,37.0,37.0,37.0,37.0,38.0,38.0,38.0,38.0,38.0,38.0,38.0,38.0,0.0,0.0,0.0,0.0,0.0,0.0,0.0,0.0,0.0,0.0,0.0,0.0,0.0,0.0,0.0,0.0,0.0,0.0,0.0,37.0,37.0,37.0,37.0,38.0,37.0,35.0,35.0,34.0,34.0,34.0,34.0,34.0,33.0,33.0,33.0,33.0,33.0,33.0,33.0,33.0,33.0,33.0,33.0,33.0,33.0,33.0,33.0,33.0,33.0,33.0,57.0,57.0,57.0,57.0,57.0,58.0,57.0,58.0,45.0,45.0,45.0,46.0,46.0,48.0,48.0,49.0,49.0,49.0,50.0,50.0,50.0,50.0,49.0,50.0,50.0,50.0,50.0,50.0,49.0,49.0,60.0,60.0,59.0,59.0,59.0,59.0,59.0,60.0,60.0,60.0,60.0,60.0,60.0,59.0,59.0,59.0,59.0,59.0,59.0,59.0,58.0,58.0,59.0,59.0,59.0,59.0,59.0,59.0,59.0,58.0,58.0,59.0,59.0,58.0,58.0,58.0,58.0,58.0,58.0,58.0,58.0,57.0,57.0,57.0,57.0,57.0,57.0,57.0,57.0,57.0,57.0,57.0,57.0,57.0,58.0,58.0,58.0,57.0,57.0,57.0,57.0,57.0,57.0,57.0,58.0,58.0,58.0,57.0,58.0,58.0,58.0,58.0,57.0,57.0,58.0,58.0,57.0,57.0,57.0,58.0,58.0,58.0,58.0,58.0,58.0,58.0,58.0,58.0,58.0,59.0,59.0,58.0,58.0,59.0,58.0,58.0,58.0,58.0,58.0,58.0,58.0,58.0,58.0,58.0,59.0,59.0,59.0,59.0,59.0,59.0,60.0,59.0,60.0,60.0,60.0,61.0,61.0,61.0,61.0,61.0,61.0,0.0,0.0,0.0,0.0,0.0,0.0,0.0,0.0
51.0,50.0,50.0,49.0,49.0,48.0,48.0,47.0,47.0,47.0,46.0,47.0,46.0,47.0,47.0,47.0,47.0,48.0,48.0,48.0,48.0,48.0,49.0,49.0,49.0,49.0,49.0,50.0,50.0,49.0,49.0,49.0,49.0,49.0,49.0,50.0,50.0,50.0,50.0,50.0,50.0,50.0,50.0,50.0,50.0,50.0,50.0,51.0,51.0,50.0,50.0,50.0,50.0,50.0,50.0,50.0,50.0,51.0,51.0,51.0,51.0,51.0,51.0,52.0,51.0,52.0,51.0,51.0,0.0,0.0,44.0,44.0,44.0,43.0,43.0,43.0,43.0,44.0,43.0,43.0,0.0,46.0,46.0,46.0,46.0,46.0,46.0,46.0,46.0,46.0,46.0,46.0,35.0,0.0,36.0,36.0,36.0,36.0,37.0,37.0,37.0,37.0,37.0,38.0,38.0,38.0,38.0,38.0,38.0,38.0,38.0,0.0,0.0,0.0,0.0,0.0,0.0,0.0,0.0,0.0,0.0,0.0,0.0,0.0,0.0,0.0,0.0,0.0,37.0,37.0,37.0,37.0,37.0,37.0,37.0,37.0,35.0,34.0,34.0,34.0,34.0,34.0,34.0,33.0,33.0,33.0,32.0,32.0,33.0,33.0,33.0,33.0,33.0,33.0,33.0,33.0,33.0,33.0,33.0,33.0,34.0,33.0,33.0,0.0,58.0,58.0,58.0,57.0,45.0,45.0,45.0,45.0,46.0,47.0,47.0,48.0,48.0,48.0,49.0,50.0,50.0,50.0,49.0,50.0,50.0,50.0,50.0,50.0,50.0,49.0,49.0,60.0,59.0,59.0,60.0,59.0,59.0,59.0,60.0,60.0,60.0,60.0,60.0,60.0,60.0,59.0,59.0,59.0,59.0,59.0,59.0,59.0,59.0,59.0,58.0,59.0,59.0,59.0,59.0,59.0,58.0,59.0,59.0,59.0,58.0,58.0,58.0,58.0,58.0,58.0,58.0,58.0,58.0,57.0,57.0,57.0,57.0,57.0,57.0,57.0,57.0,57.0,57.0,57.0,57.0,58.0,58.0,57.0,57.0,57.0,57.0,57.0,57.0,57.0,58.0,57.0,57.0,57.0,57.0,58.0,58.0,58.0,58.0,58.0,58.0,58.0,58.0,57.0,57.0,58.0,58.0,58.0,58.0,58.0,58.0,59.0,58.0,58.0,58.0,59.0,59.0,58.0,58.0,58.0,58.0,58.0,58.0,58.0,58.0,58.0,58.0,58.0,58.0,58.0,58.0,59.0,59.0,59.0,59.0,59.0,59.0,59.0,60.0,60.0,60.0,60.0,61.0,61.0,61.0,61.0,61.0,61.0,0.0,0.0,0.0,0.0,0.0,0.0,0.0,0.0
51.0,50.0,50.0,49.0,49.0,48.0,48.0,47.0,47.0,47.0,46.0,47.0,47.0,47.0,47.0,47.0,48.0,48.0,48.0,48.0,48.0,49.0,49.0,49.0,50.0,49.0,49.0,50.0,49.0,49.0,49.0,49.0,50.0,49.0,49.0,50.0,50.0,51.0,50.0,50.0,50.0,50.0,50.0,50.0,50.0,50.0,51.0,51.0,51.0,50.0,50.0,50.0,50.0,50.0,50.0,51.0,51.0,51.0,51.0,51.0,51.0,51.0,51.0,52.0,52.0,52.0,51.0,51.0,42.0,42.0,42.0,43.0,44.0,43.0,43.0,43.0,43.0,43.0,43.0,44.0,45.0,46.0,46.0,46.0,46.0,46.0,46.0,46.0,46.0,46.0,46.0,46.0,36.0,36.0,36.0,36.0,36.0,36.0,36.0,36.0,37.0,37.0,37.0,37.0,38.0,38.0,38.0,38.0,38.0,38.0,37.0,0.0,0.0,0.0,0.0,0.0,0.0,0.0,0.0,0.0,0.0,0.0,0.0,0.0,0.0,0.0,0.0,0.0,37.0,37.0,37.0,37.0,37.0,37.0,37.0,37.0,34.0,34.0,34.0,34.0,34.0,33.0,33.0,33.0,32.0,32.0,32.0,32.0,32.0,33.0,33.0,33.0,33.0,33.0,33.0,33.0,33.0,33.0,33.0,33.0,34.0,33.0,0.0,0.0,0.0,0.0,0.0,0.0,45.0,45.0,46.0,45.0,46.0,47.0,47.0,48.0,48.0,49.0,49.0,49.0,50.0,50.0,50.0,50.0,49.0,49.0,50.0,49.0,49.0,49.0,49.0,49.0,59.0,59.0,60.0,60.0,59.0,59.0,60.0,60.0,61.0,60.0,60.0,60.0,60.0,59.0,60.0,59.0,59.0,59.0,59.0,59.0,59.0,59.0,59.0,59.0,59.0,59.0,59.0,59.0,58.0,58.0,59.0,59.0,58.0,58.0,58.0,57.0,58.0,58.0,57.0,57.0,57.0,57.0,57.0,57.0,57.0,57.0,57.0,57.0,57.0,57.0,57.0,57.0,57.0,57.0,57.0,57.0,57.0,57.0,58.0,57.0,57.0,57.0,57.0,57.0,57.0,57.0,58.0,58.0,58.0,58.0,57.0,58.0,58.0,58.0,58.0,58.0,58.0,58.0,58.0,58.0,58.0,58.0,59.0,59.0,58.0,58.0,59.0,59.0,59.0,58.0,58.0,58.0,58.0,58.0,58.0,58.0,58.0,58.0,58.0,58.0,58.0,58.0,58.0,59.0,59.0,59.0,59.0,59.0,59.0,59.0,60.0,60.0,60.0,61.0,61.0,61.0,61.0,61.0,61.0,61.0,0.0,0.0,0.0,0.0,0.0,0.0,0.0,0.0
52.0,51.0,50.0,49.0,49.0,48.0,48.0,47.0,47.0,47.0,46.0,47.0,47.0,47.0,47.0,47.0,48.0,48.0,48.0,49.0,48.0,49.0,49.0,50.0,50.0,50.0,50.0,50.0,49.0,49.0,49.0,50.0,50.0,50.0,49.0,50.0,50.0,50.0,50.0,50.0,50.0,50.0,50.0,50.0,50.0,50.0,50.0,51.0,51.0,50.0,50.0,50.0,50.0,50.0,50.0,51.0,51.0,51.0,51.0,51.0,51.0,51.0,51.0,51.0,52.0,52.0,51.0,42.0,42.0,42.0,42.0,43.0,43.0,43.0,43.0,43.0,43.0,43.0,43.0,43.0,44.0,45.0,45.0,45.0,46.0,46.0,45.0,45.0,46.0,46.0,46.0,46.0,35.0,36.0,36.0,36.0,36.0,36.0,36.0,36.0,36.0,37.0,37.0,37.0,38.0,38.0,38.0,38.0,38.0,37.0,37.0,0.0,0.0,0.0,0.0,0.0,0.0,0.0,0.0,0.0,0.0,0.0,0.0,0.0,0.0,0.0,0.0,36.0,37.0,37.0,37.0,37.0,37.0,37.0,37.0,34.0,34.0,34.0,33.0,33.0,33.0,33.0,33.0,32.0,32.0,32.0,32.0,32.0,32.0,32.0,32.0,32.0,33.0,33.0,33.0,33.0,33.0,33.0,33.0,33.0,0.0,0.0,0.0,0.0,0.0,0.0,0.0,0.0,45.0,45.0,46.0,46.0,46.0,47.0,47.0,47.0,48.0,49.0,49.0,50.0,50.0,50.0,49.0,49.0,49.0,49.0,49.0,49.0,49.0,49.0,49.0,49.0,60.0,60.0,60.0,60.0,60.0,60.0,60.0,60.0,61.0,60.0,60.0,60.0,60.0,59.0,59.0,59.0,59.0,59.0,59.0,59.0,59.0,59.0,59.0,58.0,59.0,59.0,59.0,58.0,58.0,58.0,58.0,58.0,58.0,58.0,58.0,57.0,57.0,58.0,57.0,57.0,57.0,57.0,57.0,57.0,57.0,57.0,57.0,57.0,57.0,57.0,57.0,57.0,57.0,57.0,57.0,57.0,57.0,57.0,58.0,57.0,57.0,57.0,57.0,57.0,58.0,58.0,58.0,58.0,58.0,58.0,58.0,58.0,57.0,57.0,58.0,58.0,58.0,58.0,58.0,58.0,58.0,59.0,59.0,58.0,58.0,59.0,59.0,59.0,58.0,59.0,58.0,58.0,58.0,58.0,58.0,58.0,58.0,58.0,58.0,58.0,58.0,58.0,58.0,59.0,59.0,59.0,59.0,59.0,60.0,60.0,60.0,60.0,60.0,61.0,61.0,61.0,61.0,61.0,61.0,61.0,0.0,0.0,0.0,0.0,0.0,0.0,0.0,0.0
52.0,51.0,50.0,49.0,49.0,49.0,48.0,48.0,47.0,47.0,47.0,47.0,47.0,46.0,47.0,47.0,48.0,48.0,48.0,49.0,49.0,49.0,50.0,50.0,50.0,50.0,50.0,50.0,50.0,50.0,50.0,50.0,50.0,50.0,50.0,50.0,50.0,50.0,51.0,50.0,50.0,50.0,50.0,50.0,50.0,50.0,50.0,51.0,51.0,50.0,50.0,50.0,50.0,50.0,50.0,51.0,51.0,51.0,51.0,51.0,51.0,51.0,51.0,51.0,52.0,52.0,51.0,41.0,42.0,41.0,42.0,42.0,42.0,42.0,43.0,43.0,43.0,43.0,43.0,43.0,44.0,44.0,45.0,45.0,45.0,45.0,45.0,45.0,45.0,46.0,46.0,46.0,35.0,36.0,36.0,36.0,36.0,36.0,36.0,36.0,36.0,36.0,37.0,37.0,37.0,37.0,38.0,37.0,37.0,37.0,37.0,0.0,0.0,0.0,0.0,0.0,0.0,0.0,0.0,0.0,0.0,0.0,0.0,0.0,0.0,0.0,0.0,0.0,37.0,36.0,36.0,36.0,36.0,36.0,35.0,34.0,34.0,33.0,33.0,33.0,33.0,32.0,33.0,32.0,32.0,32.0,32.0,32.0,32.0,32.0,33.0,33.0,33.0,33.0,33.0,33.0,33.0,34.0,33.0,33.0,0.0,0.0,0.0,0.0,0.0,0.0,0.0,45.0,45.0,45.0,45.0,46.0,46.0,47.0,47.0,48.0,48.0,48.0,48.0,49.0,49.0,49.0,49.0,50.0,50.0,50.0,50.0,49.0,49.0,49.0,49.0,49.0,0.0,0.0,60.0,59.0,59.0,59.0,60.0,59.0,58.0,60.0,60.0,60.0,60.0,59.0,59.0,59.0,59.0,59.0,59.0,59.0,59.0,59.0,58.0,58.0,58.0,59.0,58.0,59.0,58.0,58.0,58.0,58.0,58.0,58.0,58.0,57.0,57.0,57.0,57.0,57.0,56.0,56.0,56.0,56.0,0.0,56.0,0.0,0.0,0.0,57.0,0.0,0.0,0.0,57.0,0.0,58.0,0.0,0.0,0.0,0.0,0.0,0.0,0.0,58.0,58.0,58.0,59.0,59.0,58.0,58.0,58.0,58.0,57.0,58.0,58.0,58.0,58.0,58.0,58.0,58.0,59.0,59.0,58.0,58.0,58.0,59.0,59.0,58.0,58.0,58.0,58.0,58.0,58.0,58.0,58.0,58.0,58.0,58.0,58.0,58.0,58.0,58.0,59.0,59.0,59.0,59.0,59.0,59.0,60.0,60.0,60.0,60.0,60.0,61.0,61.0,60.0,61.0,61.0,61.0,61.0,0.0,0.0,0.0,0.0,0.0,0.0,0.0,0.0
53.0,51.0,50.0,49.0,49.0,49.0,48.0,48.0,47.0,47.0,47.0,47.0,47.0,47.0,47.0,47.0,48.0,48.0,48.0,49.0,49.0,49.0,50.0,50.0,50.0,50.0,50.0,50.0,50.0,50.0,50.0,50.0,50.0,50.0,50.0,50.0,50.0,50.0,51.0,51.0,50.0,50.0,50.0,50.0,50.0,50.0,51.0,51.0,51.0,50.0,51.0,50.0,50.0,50.0,50.0,50.0,51.0,51.0,50.0,51.0,51.0,51.0,51.0,51.0,52.0,51.0,0.0,41.0,41.0,41.0,41.0,42.0,42.0,42.0,42.0,43.0,42.0,42.0,42.0,43.0,43.0,44.0,44.0,44.0,45.0,45.0,45.0,45.0,45.0,46.0,46.0,46.0,35.0,35.0,35.0,35.0,35.0,36.0,36.0,36.0,36.0,37.0,37.0,37.0,37.0,37.0,37.0,37.0,37.0,37.0,36.0,0.0,0.0,0.0,0.0,0.0,0.0,0.0,0.0,0.0,0.0,0.0,0.0,0.0,0.0,0.0,0.0,0.0,36.0,36.0,36.0,36.0,35.0,35.0,35.0,34.0,33.0,33.0,33.0,32.0,32.0,32.0,32.0,32.0,32.0,32.0,32.0,32.0,32.0,32.0,32.0,32.0,33.0,33.0,33.0,33.0,34.0,34.0,34.0,0.0,0.0,0.0,0.0,0.0,0.0,0.0,0.0,0.0,45.0,45.0,46.0,46.0,46.0,46.0,47.0,47.0,47.0,48.0,49.0,49.0,50.0,50.0,50.0,50.0,50.0,50.0,50.0,50.0,50.0,49.0,49.0,0.0,0.0,0.0,59.0,59.0,59.0,59.0,0.0,59.0,59.0,61.0,60.0,60.0,60.0,59.0,59.0,59.0,58.0,58.0,59.0,59.0,58.0,59.0,58.0,58.0,0.0,0.0,59.0,58.0,59.0,58.0,58.0,0.0,0.0,0.0,58.0,58.0,57.0,57.0,57.0,57.0,57.0,56.0,56.0,0.0,0.0,0.0,0.0,0.0,0.0,0.0,0.0,0.0,0.0,0.0,0.0,0.0,0.0,0.0,0.0,0.0,0.0,0.0,0.0,0.0,0.0,58.0,59.0,59.0,58.0,59.0,58.0,57.0,58.0,58.0,58.0,58.0,58.0,58.0,58.0,58.0,58.0,58.0,58.0,59.0,59.0,59.0,58.0,58.0,59.0,58.0,58.0,58.0,58.0,58.0,58.0,58.0,58.0,58.0,58.0,58.0,58.0,59.0,59.0,59.0,59.0,59.0,59.0,59.0,60.0,60.0,60.0,60.0,61.0,61.0,61.0,61.0,61.0,61.0,61.0,61.0,0.0,0.0,0.0,0.0,0.0,0.0,0.0,0.0
53.0,51.0,50.0,50.0,49.0,49.0,48.0,48.0,47.0,48.0,48.0,47.0,47.0,47.0,48.0,47.0,47.0,48.0,48.0,49.0,49.0,49.0,50.0,50.0,50.0,50.0,50.0,50.0,50.0,50.0,50.0,50.0,50.0,50.0,50.0,50.0,50.0,50.0,51.0,51.0,50.0,51.0,50.0,50.0,50.0,50.0,51.0,51.0,51.0,50.0,51.0,50.0,50.0,50.0,50.0,50.0,50.0,51.0,51.0,50.0,50.0,50.0,50.0,51.0,52.0,0.0,0.0,42.0,42.0,41.0,41.0,41.0,42.0,42.0,42.0,42.0,43.0,42.0,42.0,42.0,43.0,44.0,44.0,44.0,44.0,45.0,45.0,45.0,45.0,46.0,0.0,35.0,35.0,35.0,35.0,35.0,35.0,36.0,36.0,36.0,36.0,36.0,37.0,37.0,37.0,37.0,37.0,37.0,37.0,37.0,36.0,36.0,36.0,0.0,0.0,0.0,0.0,34.0,0.0,0.0,0.0,0.0,0.0,0.0,0.0,0.0,0.0,0.0,36.0,36.0,36.0,35.0,35.0,35.0,35.0,34.0,33.0,33.0,33.0,32.0,32.0,32.0,32.0,32.0,31.0,31.0,32.0,31.0,31.0,32.0,32.0,32.0,30.0,30.0,33.0,34.0,34.0,34.0,34.0,0.0,0.0,0.0,0.0,0.0,0.0,0.0,0.0,0.0,45.0,46.0,46.0,46.0,46.0,46.0,47.0,47.0,48.0,48.0,49.0,50.0,50.0,50.0,50.0,50.0,50.0,50.0,50.0,50.0,49.0,49.0,49.0,0.0,0.0,0.0,0.0,0.0,0.0,0.0,0.0,0.0,0.0,0.0,0.0,0.0,0.0,0.0,58.0,57.0,56.0,56.0,57.0,0.0,0.0,0.0,0.0,0.0,0.0,0.0,0.0,0.0,0.0,0.0,0.0,0.0,0.0,0.0,0.0,0.0,0.0,58.0,57.0,57.0,57.0,0.0,0.0,0.0,0.0,0.0,0.0,0.0,0.0,0.0,0.0,0.0,0.0,0.0,0.0,0.0,0.0,0.0,0.0,0.0,0.0,0.0,0.0,0.0,0.0,0.0,58.0,59.0,59.0,59.0,58.0,58.0,58.0,58.0,58.0,58.0,58.0,58.0,59.0,58.0,58.0,58.0,59.0,59.0,59.0,59.0,58.0,59.0,58.0,58.0,58.0,58.0,59.0,58.0,58.0,58.0,58.0,58.0,58.0,58.0,59.0,58.0,59.0,59.0,59.0,59.0,59.0,59.0,60.0,60.0,60.0,60.0,61.0,61.0,61.0,61.0,61.0,62.0,62.0,62.0,0.0,0.0,0.0,0.0,0.0,0.0,0.0,0.0
53.0,51.0,51.0,50.0,50.0,49.0,48.0,48.0,48.0,48.0,48.0,47.0,47.0,47.0,48.0,48.0,47.0,48.0,48.0,49.0,49.0,50.0,50.0,50.0,50.0,50.0,50.0,50.0,50.0,50.0,50.0,50.0,50.0,50.0,50.0,50.0,50.0,51.0,51.0,51.0,50.0,51.0,51.0,50.0,50.0,50.0,50.0,51.0,51.0,50.0,50.0,50.0,50.0,50.0,50.0,51.0,50.0,51.0,51.0,50.0,51.0,50.0,0.0,49.0,0.0,0.0,0.0,42.0,42.0,41.0,41.0,42.0,42.0,42.0,42.0,42.0,42.0,42.0,42.0,42.0,42.0,43.0,44.0,44.0,44.0,45.0,45.0,45.0,45.0,0.0,0.0,35.0,35.0,35.0,35.0,35.0,35.0,35.0,35.0,36.0,36.0,36.0,37.0,38.0,38.0,37.0,37.0,37.0,37.0,37.0,36.0,35.0,36.0,0.0,0.0,0.0,0.0,34.0,0.0,0.0,0.0,0.0,0.0,0.0,0.0,0.0,0.0,0.0,36.0,35.0,35.0,35.0,35.0,35.0,35.0,34.0,33.0,33.0,32.0,32.0,32.0,32.0,31.0,31.0,31.0,31.0,31.0,31.0,30.0,30.0,30.0,30.0,30.0,30.0,36.0,36.0,36.0,36.0,36.0,36.0,36.0,35.0,35.0,34.0,34.0,34.0,35.0,0.0,45.0,45.0,46.0,46.0,46.0,47.0,47.0,47.0,48.0,49.0,50.0,50.0,50.0,50.0,50.0,50.0,50.0,50.0,50.0,49.0,49.0,49.0,49.0,48.0,48.0,0.0,0.0,0.0,0.0,0.0,0.0,0.0,0.0,0.0,0.0,0.0,0.0,0.0,0.0,56.0,55.0,55.0,54.0,0.0,0.0,0.0,0.0,0.0,0.0,0.0,0.0,0.0,0.0,0.0,0.0,0.0,0.0,0.0,0.0,0.0,0.0,0.0,0.0,0.0,0.0,0.0,0.0,0.0,0.0,0.0,0.0,0.0,0.0,0.0,0.0,0.0,0.0,0.0,0.0,0.0,0.0,0.0,0.0,0.0,0.0,0.0,0.0,0.0,0.0,0.0,0.0,59.0,59.0,0.0,0.0,59.0,0.0,0.0,59.0,58.0,59.0,59.0,59.0,58.0,58.0,58.0,59.0,59.0,59.0,59.0,59.0,58.0,58.0,58.0,59.0,59.0,58.0,58.0,58.0,58.0,58.0,58.0,58.0,58.0,59.0,59.0,59.0,59.0,59.0,59.0,59.0,60.0,60.0,60.0,60.0,60.0,60.0,61.0,61.0,61.0,61.0,61.0,62.0,62.0,0.0,0.0,0.0,0.0,0.0,0.0,0.0,0.0
53.0,51.0,51.0,50.0,50.0,50.0,49.0,48.0,48.0,48.0,48.0,48.0,47.0,47.0,48.0,48.0,48.0,48.0,48.0,49.0,49.0,49.0,50.0,50.0,50.0,50.0,50.0,50.0,50.0,50.0,50.0,50.0,50.0,50.0,50.0,50.0,51.0,51.0,51.0,51.0,51.0,51.0,51.0,50.0,50.0,50.0,51.0,51.0,51.0,50.0,51.0,50.0,50.0,50.0,50.0,51.0,50.0,51.0,50.0,50.0,51.0,0.0,0.0,0.0,0.0,0.0,0.0,42.0,42.0,42.0,42.0,42.0,42.0,42.0,42.0,42.0,42.0,42.0,42.0,42.0,43.0,43.0,43.0,44.0,44.0,44.0,44.0,44.0,45.0,0.0,0.0,0.0,35.0,35.0,35.0,35.0,35.0,35.0,35.0,35.0,36.0,36.0,37.0,37.0,37.0,37.0,37.0,37.0,37.0,37.0,35.0,34.0,35.0,35.0,35.0,35.0,35.0,34.0,0.0,0.0,0.0,0.0,0.0,0.0,0.0,0.0,0.0,0.0,35.0,35.0,35.0,35.0,35.0,35.0,35.0,34.0,33.0,33.0,32.0,32.0,32.0,32.0,31.0,31.0,31.0,30.0,31.0,30.0,30.0,30.0,30.0,30.0,30.0,30.0,36.0,36.0,36.0,36.0,36.0,36.0,36.0,35.0,35.0,34.0,34.0,34.0,34.0,34.0,34.0,46.0,46.0,46.0,47.0,47.0,47.0,48.0,48.0,48.0,49.0,49.0,49.0,50.0,50.0,50.0,50.0,50.0,50.0,50.0,49.0,49.0,49.0,0.0,0.0,0.0,0.0,0.0,0.0,0.0,0.0,0.0,0.0,0.0,0.0,0.0,0.0,0.0,55.0,55.0,55.0,54.0,54.0,0.0,0.0,0.0,0.0,0.0,0.0,0.0,0.0,0.0,0.0,0.0,0.0,0.0,0.0,0.0,0.0,0.0,0.0,0.0,0.0,0.0,0.0,0.0,0.0,0.0,0.0,0.0,0.0,0.0,0.0,0.0,0.0,0.0,0.0,0.0,0.0,0.0,0.0,0.0,0.0,0.0,0.0,0.0,0.0,0.0,0.0,0.0,0.0,0.0,0.0,0.0,0.0,0.0,0.0,0.0,0.0,58.0,59.0,59.0,59.0,59.0,59.0,59.0,59.0,59.0,59.0,59.0,59.0,58.0,58.0,59.0,59.0,58.0,58.0,58.0,58.0,58.0,58.0,58.0,59.0,59.0,59.0,59.0,59.0,59.0,59.0,59.0,60.0,60.0,60.0,60.0,60.0,60.0,61.0,61.0,61.0,61.0,61.0,61.0,62.0,62.0,0.0,0.0,0.0,0.0,0.0,0.0,0.0,0.0
53.0,51.0,51.0,50.0,50.0,49.0,49.0,48.0,48.0,48.0,47.0,48.0,47.0,48.0,47.0,48.0,48.0,48.0,49.0,49.0,49.0,49.0,50.0,50.0,50.0,51.0,50.0,50.0,50.0,50.0,50.0,50.0,50.0,51.0,51.0,51.0,51.0,51.0,51.0,51.0,51.0,51.0,51.0,50.0,50.0,50.0,51.0,51.0,51.0,50.0,51.0,50.0,50.0,50.0,0.0,51.0,50.0,50.0,35.0,35.0,35.0,0.0,0.0,37.0,0.0,35.0,0.0,0.0,0.0,0.0,36.0,43.0,42.0,42.0,42.0,42.0,42.0,42.0,43.0,42.0,43.0,43.0,43.0,43.0,43.0,44.0,44.0,44.0,0.0,0.0,0.0,0.0,35.0,35.0,35.0,35.0,35.0,35.0,35.0,35.0,36.0,37.0,37.0,37.0,37.0,37.0,37.0,37.0,37.0,37.0,35.0,34.0,35.0,35.0,35.0,35.0,35.0,35.0,0.0,0.0,0.0,0.0,0.0,0.0,0.0,0.0,0.0,0.0,0.0,35.0,35.0,35.0,35.0,35.0,34.0,35.0,34.0,33.0,32.0,32.0,32.0,31.0,31.0,31.0,31.0,30.0,30.0,30.0,30.0,30.0,30.0,30.0,30.0,37.0,36.0,36.0,36.0,36.0,36.0,36.0,35.0,35.0,35.0,34.0,34.0,34.0,34.0,34.0,34.0,46.0,46.0,46.0,46.0,47.0,47.0,47.0,48.0,48.0,48.0,49.0,49.0,50.0,0.0,0.0,0.0,51.0,50.0,50.0,0.0,0.0,0.0,0.0,0.0,0.0,0.0,0.0,0.0,0.0,0.0,0.0,0.0,0.0,0.0,0.0,0.0,0.0,55.0,54.0,54.0,54.0,54.0,0.0,0.0,0.0,0.0,0.0,0.0,0.0,0.0,0.0,0.0,0.0,0.0,0.0,0.0,0.0,0.0,0.0,0.0,0.0,0.0,0.0,0.0,0.0,0.0,0.0,0.0,0.0,0.0,0.0,0.0,0.0,0.0,0.0,0.0,0.0,0.0,0.0,0.0,0.0,0.0,0.0,0.0,0.0,0.0,0.0,0.0,0.0,0.0,0.0,0.0,0.0,0.0,0.0,0.0,0.0,0.0,59.0,59.0,59.0,59.0,59.0,59.0,59.0,59.0,59.0,59.0,59.0,59.0,58.0,59.0,59.0,58.0,59.0,59.0,58.0,58.0,58.0,59.0,59.0,59.0,59.0,59.0,59.0,60.0,60.0,59.0,60.0,60.0,60.0,60.0,60.0,60.0,61.0,61.0,61.0,61.0,61.0,61.0,61.0,62.0,62.0,0.0,0.0,0.0,0.0,0.0,0.0,0.0,0.0
53.0,51.0,51.0,50.0,50.0,50.0,49.0,48.0,48.0,48.0,48.0,48.0,48.0,47.0,48.0,48.0,48.0,49.0,49.0,49.0,50.0,49.0,49.0,50.0,50.0,50.0,51.0,50.0,50.0,50.0,50.0,50.0,50.0,51.0,51.0,51.0,51.0,51.0,51.0,51.0,51.0,51.0,51.0,50.0,50.0,51.0,51.0,51.0,51.0,50.0,51.0,50.0,50.0,0.0,36.0,35.0,35.0,35.0,35.0,35.0,35.0,37.0,37.0,37.0,36.0,35.0,35.0,0.0,0.0,0.0,0.0,0.0,36.0,36.0,36.0,43.0,43.0,43.0,43.0,42.0,42.0,43.0,43.0,43.0,43.0,44.0,44.0,0.0,0.0,0.0,0.0,0.0,35.0,34.0,34.0,35.0,35.0,35.0,35.0,35.0,36.0,37.0,37.0,37.0,37.0,37.0,37.0,37.0,37.0,37.0,35.0,35.0,35.0,35.0,35.0,35.0,35.0,35.0,0.0,0.0,0.0,0.0,0.0,0.0,0.0,0.0,0.0,0.0,0.0,35.0,35.0,35.0,35.0,35.0,34.0,34.0,34.0,34.0,33.0,32.0,31.0,31.0,31.0,31.0,31.0,30.0,30.0,30.0,30.0,30.0,30.0,30.0,37.0,36.0,36.0,36.0,36.0,36.0,36.0,36.0,35.0,35.0,35.0,34.0,34.0,34.0,34.0,34.0,34.0,46.0,46.0,46.0,46.0,47.0,47.0,48.0,47.0,48.0,0.0,0.0,0.0,0.0,0.0,0.0,0.0,0.0,0.0,0.0,0.0,0.0,0.0,0.0,0.0,0.0,0.0,0.0,0.0,0.0,0.0,0.0,0.0,0.0,0.0,0.0,0.0,53.0,54.0,54.0,54.0,54.0,0.0,0.0,0.0,0.0,0.0,0.0,0.0,0.0,0.0,0.0,0.0,0.0,0.0,0.0,0.0,0.0,0.0,0.0,0.0,0.0,0.0,0.0,0.0,0.0,0.0,0.0,0.0,0.0,0.0,0.0,0.0,0.0,0.0,0.0,0.0,0.0,0.0,0.0,0.0,0.0,0.0,0.0,0.0,0.0,0.0,0.0,0.0,0.0,0.0,0.0,0.0,0.0,0.0,0.0,0.0,0.0,0.0,0.0,47.0,59.0,59.0,59.0,59.0,59.0,59.0,59.0,59.0,59.0,58.0,59.0,58.0,58.0,58.0,59.0,59.0,59.0,59.0,58.0,59.0,59.0,59.0,59.0,59.0,59.0,59.0,59.0,59.0,59.0,59.0,60.0,60.0,60.0,60.0,60.0,61.0,62.0,61.0,61.0,61.0,61.0,62.0,0.0,0.0,0.0,0.0,0.0,0.0,0.0,0.0,0.0
54.0,53.0,51.0,51.0,51.0,50.0,49.0,49.0,49.0,48.0,48.0,48.0,47.0,48.0,48.0,48.0,48.0,48.0,49.0,49.0,49.0,50.0,49.0,50.0,50.0,50.0,51.0,51.0,50.0,50.0,50.0,51.0,50.0,51.0,51.0,51.0,51.0,51.0,51.0,51.0,51.0,51.0,51.0,50.0,51.0,51.0,51.0,51.0,51.0,51.0,50.0,50.0,0.0,0.0,36.0,35.0,35.0,35.0,35.0,35.0,35.0,35.0,36.0,36.0,36.0,35.0,35.0,35.0,35.0,35.0,36.0,36.0,36.0,36.0,36.0,36.0,36.0,36.0,36.0,43.0,42.0,43.0,43.0,43.0,43.0,43.0,43.0,43.0,0.0,0.0,0.0,34.0,34.0,34.0,35.0,35.0,35.0,34.0,34.0,34.0,35.0,36.0,37.0,37.0,37.0,37.0,37.0,37.0,37.0,37.0,35.0,35.0,36.0,35.0,35.0,35.0,35.0,35.0,0.0,0.0,0.0,0.0,0.0,0.0,0.0,0.0,0.0,0.0,0.0,34.0,34.0,35.0,34.0,34.0,34.0,34.0,34.0,34.0,33.0,33.0,32.0,31.0,30.0,30.0,30.0,30.0,30.0,30.0,30.0,30.0,30.0,30.0,37.0,36.0,36.0,36.0,36.0,36.0,36.0,36.0,35.0,35.0,35.0,35.0,34.0,34.0,34.0,34.0,46.0,46.0,46.0,47.0,47.0,47.0,47.0,48.0,47.0,0.0,0.0,0.0,0.0,0.0,0.0,0.0,0.0,0.0,0.0,0.0,0.0,0.0,0.0,0.0,0.0,0.0,0.0,0.0,0.0,0.0,0.0,0.0,0.0,0.0,0.0,0.0,0.0,0.0,0.0,0.0,0.0,0.0,0.0,0.0,0.0,0.0,0.0,0.0,0.0,0.0,0.0,0.0,0.0,0.0,0.0,0.0,0.0,0.0,0.0,0.0,0.0,0.0,0.0,0.0,0.0,0.0,0.0,0.0,0.0,0.0,0.0,0.0,0.0,0.0,0.0,0.0,44.0,0.0,0.0,0.0,0.0,0.0,0.0,0.0,0.0,0.0,0.0,0.0,0.0,0.0,0.0,0.0,0.0,0.0,0.0,0.0,0.0,0.0,0.0,0.0,46.0,45.0,46.0,59.0,59.0,59.0,59.0,59.0,59.0,59.0,59.0,59.0,58.0,58.0,58.0,59.0,59.0,59.0,59.0,59.0,59.0,59.0,59.0,59.0,59.0,59.0,59.0,60.0,59.0,59.0,59.0,60.0,60.0,60.0,60.0,60.0,61.0,61.0,61.0,61.0,61.0,61.0,62.0,0.0,0.0,0.0,0.0,0.0,0.0,0.0,0.0,0.0
0.0,53.0,51.0,51.0,50.0,50.0,49.0,49.0,49.0,48.0,48.0,48.0,47.0,48.0,48.0,48.0,48.0,48.0,48.0,49.0,49.0,49.0,50.0,49.0,50.0,50.0,51.0,51.0,51.0,51.0,51.0,51.0,51.0,51.0,52.0,52.0,51.0,51.0,51.0,51.0,51.0,51.0,51.0,51.0,51.0,51.0,51.0,51.0,50.0,50.0,0.0,49.0,0.0,36.0,35.0,35.0,35.0,35.0,35.0,35.0,35.0,35.0,36.0,36.0,36.0,35.0,35.0,35.0,35.0,35.0,36.0,36.0,36.0,36.0,36.0,36.0,35.0,36.0,36.0,36.0,36.0,43.0,43.0,43.0,43.0,44.0,43.0,0.0,0.0,0.0,0.0,34.0,34.0,34.0,34.0,34.0,34.0,34.0,34.0,34.0,34.0,36.0,36.0,37.0,37.0,37.0,37.0,37.0,37.0,36.0,35.0,35.0,36.0,35.0,35.0,35.0,35.0,35.0,35.0,35.0,0.0,0.0,0.0,0.0,0.0,0.0,0.0,0.0,0.0,34.0,34.0,34.0,34.0,34.0,34.0,34.0,34.0,34.0,33.0,33.0,30.0,30.0,30.0,30.0,30.0,30.0,30.0,30.0,30.0,30.0,30.0,30.0,37.0,36.0,36.0,36.0,36.0,36.0,36.0,36.0,35.0,35.0,35.0,35.0,35.0,35.0,35.0,34.0,34.0,46.0,47.0,47.0,47.0,47.0,47.0,47.0,0.0,0.0,0.0,0.0,0.0,0.0,0.0,0.0,0.0,0.0,0.0,0.0,0.0,0.0,0.0,0.0,0.0,0.0,0.0,0.0,0.0,0.0,0.0,0.0,0.0,0.0,0.0,0.0,0.0,0.0,0.0,0.0,0.0,0.0,0.0,0.0,0.0,0.0,0.0,0.0,0.0,0.0,0.0,0.0,0.0,0.0,0.0,0.0,0.0,0.0,0.0,0.0,0.0,0.0,0.0,0.0,0.0,0.0,0.0,0.0,0.0,0.0,0.0,0.0,0.0,0.0,0.0,0.0,45.0,0.0,0.0,0.0,0.0,0.0,0.0,44.0,0.0,0.0,0.0,44.0,0.0,0.0,0.0,0.0,0.0,0.0,0.0,0.0,0.0,0.0,0.0,0.0,45.0,45.0,45.0,59.0,59.0,59.0,59.0,59.0,59.0,59.0,59.0,59.0,59.0,59.0,59.0,59.0,59.0,59.0,59.0,59.0,59.0,59.0,59.0,60.0,60.0,60.0,60.0,60.0,60.0,60.0,59.0,60.0,60.0,60.0,60.0,61.0,61.0,61.0,61.0,61.0,61.0,62.0,62.0,0.0,0.0,0.0,0.0,0.0,0.0,0.0,0.0,0.0
0.0,52.0,51.0,51.0,51.0,50.0,50.0,49.0,48.0,48.0,48.0,48.0,48.0,48.0,48.0,48.0,48.0,49.0,49.0,49.0,49.0,49.0,50.0,50.0,49.0,50.0,50.0,51.0,51.0,51.0,51.0,51.0,51.0,51.0,52.0,52.0,51.0,51.0,51.0,51.0,51.0,51.0,51.0,51.0,51.0,51.0,51.0,51.0,50.0,50.0,0.0,0.0,0.0,35.0,35.0,35.0,35.0,34.0,34.0,34.0,34.0,35.0,36.0,35.0,35.0,35.0,35.0,35.0,35.0,35.0,35.0,36.0,36.0,36.0,36.0,36.0,36.0,36.0,36.0,35.0,43.0,43.0,43.0,43.0,43.0,43.0,43.0,0.0,0.0,0.0,0.0,34.0,34.0,34.0,34.0,34.0,34.0,34.0,34.0,34.0,34.0,35.0,36.0,37.0,37.0,36.0,36.0,36.0,37.0,36.0,36.0,35.0,36.0,36.0,35.0,35.0,35.0,35.0,35.0,35.0,0.0,0.0,0.0,0.0,0.0,0.0,0.0,33.0,33.0,33.0,33.0,33.0,33.0,34.0,34.0,34.0,34.0,34.0,34.0,30.0,30.0,30.0,30.0,30.0,30.0,30.0,30.0,30.0,30.0,30.0,30.0,30.0,30.0,37.0,36.0,36.0,36.0,36.0,36.0,36.0,36.0,35.0,35.0,35.0,35.0,35.0,35.0,35.0,35.0,47.0,47.0,47.0,47.0,47.0,0.0,0.0,0.0,0.0,0.0,0.0,0.0,0.0,0.0,0.0,0.0,0.0,0.0,0.0,0.0,0.0,0.0,0.0,0.0,0.0,0.0,0.0,0.0,0.0,0.0,0.0,0.0,0.0,0.0,0.0,0.0,0.0,0.0,0.0,0.0,0.0,0.0,0.0,0.0,0.0,0.0,0.0,0.0,0.0,0.0,0.0,0.0,0.0,0.0,0.0,0.0,0.0,0.0,0.0,0.0,0.0,0.0,0.0,0.0,0.0,0.0,0.0,0.0,0.0,0.0,0.0,0.0,0.0,0.0,44.0,44.0,0.0,44.0,44.0,44.0,45.0,45.0,44.0,0.0,44.0,44.0,44.0,44.0,0.0,0.0,0.0,0.0,0.0,0.0,0.0,0.0,0.0,44.0,44.0,44.0,45.0,45.0,44.0,44.0,59.0,60.0,60.0,59.0,59.0,59.0,59.0,59.0,59.0,59.0,59.0,59.0,59.0,59.0,59.0,59.0,59.0,60.0,60.0,60.0,60.0,60.0,60.0,60.0,60.0,60.0,60.0,60.0,60.0,60.0,60.0,61.0,61.0,61.0,62.0,61.0,62.0,63.0,63.0,0.0,0.0,0.0,0.0,0.0,0.0,0.0,0.0
0.0,53.0,51.0,51.0,51.0,50.0,49.0,49.0,49.0,48.0,48.0,48.0,48.0,48.0,48.0,47.0,48.0,49.0,49.0,49.0,50.0,49.0,49.0,50.0,50.0,50.0,50.0,51.0,51.0,51.0,51.0,51.0,51.0,51.0,52.0,52.0,52.0,52.0,52.0,51.0,51.0,51.0,51.0,51.0,51.0,50.0,51.0,51.0,50.0,0.0,0.0,0.0,0.0,35.0,35.0,35.0,35.0,34.0,34.0,34.0,34.0,35.0,35.0,35.0,35.0,35.0,35.0,35.0,35.0,35.0,34.0,34.0,35.0,35.0,35.0,34.0,35.0,35.0,35.0,43.0,43.0,43.0,43.0,43.0,43.0,42.0,0.0,0.0,33.0,0.0,34.0,34.0,34.0,34.0,34.0,34.0,34.0,34.0,34.0,33.0,34.0,34.0,36.0,36.0,36.0,36.0,36.0,36.0,36.0,36.0,35.0,35.0,35.0,35.0,35.0,35.0,35.0,35.0,35.0,35.0,0.0,0.0,0.0,0.0,0.0,32.0,0.0,33.0,33.0,33.0,33.0,33.0,33.0,33.0,33.0,33.0,33.0,34.0,34.0,29.0,30.0,30.0,29.0,30.0,30.0,30.0,30.0,30.0,30.0,30.0,30.0,30.0,30.0,30.0,37.0,36.0,36.0,36.0,36.0,36.0,36.0,35.0,35.0,35.0,35.0,35.0,35.0,35.0,35.0,35.0,47.0,47.0,47.0,47.0,0.0,0.0,0.0,0.0,0.0,0.0,0.0,0.0,0.0,0.0,0.0,0.0,0.0,0.0,0.0,0.0,0.0,0.0,0.0,0.0,0.0,47.0,47.0,47.0,47.0,47.0,46.0,47.0,46.0,0.0,0.0,0.0,0.0,0.0,0.0,0.0,0.0,0.0,0.0,0.0,0.0,0.0,0.0,0.0,0.0,0.0,0.0,0.0,0.0,0.0,0.0,0.0,0.0,0.0,0.0,0.0,0.0,0.0,0.0,0.0,0.0,0.0,0.0,0.0,0.0,0.0,0.0,0.0,0.0,44.0,44.0,44.0,44.0,44.0,45.0,45.0,46.0,44.0,43.0,43.0,44.0,43.0,44.0,0.0,0.0,0.0,0.0,0.0,0.0,0.0,0.0,44.0,44.0,44.0,44.0,44.0,45.0,45.0,44.0,45.0,45.0,43.0,43.0,59.0,59.0,59.0,59.0,59.0,59.0,59.0,59.0,59.0,59.0,59.0,59.0,60.0,60.0,60.0,60.0,60.0,60.0,61.0,60.0,60.0,61.0,60.0,61.0,61.0,61.0,61.0,61.0,62.0,62.0,62.0,62.0,62.0,63.0,63.0,0.0,0.0,0.0,0.0,0.0,0.0,0.0,0.0
0.0,53.0,52.0,51.0,51.0,50.0,50.0,49.0,49.0,48.0,49.0,48.0,48.0,48.0,48.0,48.0,48.0,48.0,49.0,49.0,49.0,50.0,49.0,50.0,50.0,51.0,51.0,51.0,51.0,51.0,51.0,51.0,51.0,51.0,51.0,51.0,51.0,51.0,51.0,51.0,51.0,51.0,51.0,51.0,51.0,50.0,50.0,50.0,50.0,50.0,0.0,0.0,35.0,35.0,35.0,34.0,35.0,34.0,34.0,34.0,34.0,34.0,35.0,35.0,35.0,35.0,35.0,35.0,35.0,34.0,34.0,34.0,34.0,34.0,33.0,33.0,33.0,34.0,34.0,0.0,43.0,43.0,43.0,43.0,43.0,42.0,0.0,33.0,33.0,33.0,33.0,34.0,34.0,34.0,34.0,34.0,34.0,34.0,34.0,34.0,34.0,34.0,36.0,36.0,36.0,36.0,36.0,36.0,36.0,36.0,35.0,35.0,35.0,35.0,35.0,35.0,35.0,35.0,35.0,36.0,0.0,0.0,0.0,0.0,0.0,32.0,32.0,32.0,32.0,32.0,32.0,32.0,32.0,32.0,33.0,33.0,33.0,29.0,29.0,29.0,29.0,29.0,29.0,29.0,30.0,30.0,30.0,30.0,30.0,30.0,30.0,30.0,30.0,30.0,37.0,37.0,36.0,36.0,36.0,36.0,36.0,35.0,35.0,35.0,35.0,35.0,35.0,35.0,35.0,35.0,42.0,42.0,48.0,48.0,42.0,42.0,42.0,42.0,0.0,0.0,0.0,0.0,0.0,0.0,0.0,0.0,0.0,0.0,0.0,0.0,0.0,0.0,0.0,0.0,0.0,0.0,0.0,46.0,47.0,46.0,45.0,46.0,45.0,44.0,44.0,44.0,43.0,43.0,0.0,0.0,0.0,0.0,0.0,44.0,0.0,0.0,0.0,0.0,43.0,43.0,0.0,0.0,0.0,0.0,0.0,0.0,0.0,0.0,0.0,0.0,0.0,0.0,0.0,0.0,0.0,0.0,0.0,0.0,0.0,41.0,0.0,41.0,0.0,41.0,44.0,44.0,45.0,45.0,45.0,45.0,46.0,42.0,42.0,42.0,43.0,43.0,43.0,43.0,43.0,43.0,43.0,43.0,43.0,43.0,44.0,44.0,44.0,44.0,44.0,45.0,45.0,44.0,45.0,45.0,45.0,44.0,43.0,43.0,43.0,43.0,59.0,59.0,59.0,59.0,59.0,60.0,60.0,59.0,59.0,60.0,60.0,60.0,60.0,60.0,60.0,61.0,61.0,61.0,61.0,61.0,61.0,61.0,61.0,61.0,61.0,62.0,62.0,62.0,62.0,62.0,63.0,63.0,0.0,0.0,0.0,0.0,0.0,0.0,0.0,0.0
0.0,53.0,52.0,51.0,51.0,50.0,50.0,50.0,49.0,49.0,49.0,48.0,48.0,48.0,48.0,48.0,48.0,48.0,49.0,49.0,49.0,50.0,50.0,50.0,50.0,51.0,51.0,51.0,51.0,51.0,51.0,51.0,51.0,51.0,51.0,51.0,51.0,51.0,50.0,51.0,51.0,51.0,51.0,51.0,51.0,50.0,50.0,50.0,50.0,50.0,0.0,0.0,0.0,35.0,34.0,34.0,34.0,34.0,34.0,34.0,35.0,34.0,35.0,35.0,35.0,35.0,35.0,35.0,34.0,34.0,33.0,33.0,34.0,34.0,33.0,33.0,33.0,33.0,35.0,35.0,33.0,33.0,0.0,42.0,42.0,42.0,33.0,33.0,33.0,33.0,33.0,33.0,33.0,33.0,33.0,33.0,34.0,34.0,34.0,34.0,34.0,34.0,34.0,36.0,37.0,36.0,36.0,36.0,36.0,36.0,36.0,35.0,35.0,35.0,35.0,35.0,35.0,35.0,0.0,0.0,0.0,0.0,0.0,0.0,32.0,32.0,32.0,32.0,32.0,32.0,32.0,32.0,32.0,32.0,29.0,29.0,29.0,29.0,29.0,29.0,29.0,29.0,29.0,30.0,30.0,30.0,30.0,30.0,30.0,30.0,30.0,31.0,31.0,31.0,31.0,37.0,36.0,36.0,36.0,36.0,36.0,35.0,35.0,35.0,35.0,35.0,35.0,35.0,35.0,35.0,42.0,41.0,41.0,41.0,42.0,42.0,42.0,42.0,42.0,43.0,0.0,0.0,0.0,0.0,0.0,0.0,0.0,0.0,0.0,0.0,0.0,0.0,0.0,0.0,0.0,0.0,0.0,46.0,46.0,45.0,45.0,45.0,44.0,44.0,44.0,44.0,43.0,43.0,0.0,0.0,0.0,0.0,43.0,43.0,0.0,0.0,0.0,0.0,43.0,0.0,0.0,0.0,0.0,0.0,0.0,0.0,0.0,0.0,0.0,0.0,0.0,0.0,0.0,0.0,0.0,0.0,0.0,0.0,0.0,41.0,41.0,41.0,41.0,41.0,41.0,42.0,42.0,0.0,0.0,42.0,42.0,42.0,42.0,42.0,43.0,43.0,42.0,43.0,43.0,43.0,43.0,43.0,43.0,45.0,44.0,44.0,44.0,44.0,44.0,44.0,44.0,45.0,44.0,44.0,43.0,43.0,43.0,43.0,42.0,41.0,41.0,59.0,59.0,59.0,59.0,59.0,59.0,59.0,59.0,60.0,59.0,60.0,60.0,60.0,60.0,61.0,61.0,60.0,61.0,61.0,61.0,61.0,62.0,62.0,62.0,62.0,62.0,63.0,62.0,62.0,63.0,63.0,0.0,0.0,0.0,0.0,0.0,0.0,0.0,0.0
0.0,53.0,53.0,51.0,51.0,51.0,50.0,50.0,49.0,49.0,48.0,48.0,48.0,48.0,48.0,48.0,49.0,49.0,49.0,49.0,49.0,49.0,50.0,50.0,51.0,51.0,51.0,51.0,51.0,51.0,51.0,51.0,51.0,51.0,51.0,51.0,51.0,51.0,52.0,51.0,51.0,51.0,51.0,51.0,51.0,50.0,50.0,50.0,50.0,50.0,0.0,35.0,35.0,35.0,34.0,35.0,34.0,34.0,34.0,34.0,35.0,34.0,35.0,35.0,35.0,35.0,35.0,34.0,33.0,34.0,33.0,33.0,33.0,33.0,33.0,33.0,33.0,33.0,35.0,33.0,33.0,33.0,33.0,32.0,0.0,32.0,32.0,32.0,32.0,33.0,33.0,33.0,33.0,33.0,33.0,34.0,34.0,34.0,34.0,34.0,34.0,34.0,34.0,34.0,36.0,36.0,36.0,36.0,36.0,36.0,35.0,35.0,35.0,35.0,35.0,35.0,0.0,0.0,0.0,0.0,0.0,0.0,0.0,0.0,32.0,32.0,32.0,32.0,32.0,32.0,31.0,31.0,31.0,30.0,29.0,29.0,29.0,29.0,29.0,29.0,29.0,29.0,29.0,30.0,30.0,30.0,30.0,30.0,30.0,30.0,31.0,31.0,31.0,31.0,31.0,31.0,36.0,36.0,36.0,36.0,36.0,35.0,35.0,35.0,35.0,35.0,35.0,35.0,35.0,35.0,41.0,41.0,41.0,41.0,42.0,42.0,42.0,42.0,43.0,0.0,0.0,0.0,0.0,0.0,0.0,0.0,0.0,0.0,0.0,0.0,0.0,0.0,0.0,0.0,0.0,0.0,0.0,46.0,46.0,45.0,45.0,45.0,45.0,44.0,44.0,44.0,43.0,43.0,43.0,43.0,42.0,43.0,42.0,43.0,43.0,43.0,43.0,42.0,42.0,0.0,0.0,0.0,0.0,0.0,0.0,0.0,0.0,0.0,0.0,0.0,0.0,0.0,0.0,0.0,0.0,0.0,0.0,0.0,0.0,41.0,41.0,41.0,41.0,41.0,40.0,42.0,0.0,0.0,0.0,0.0,0.0,0.0,43.0,43.0,43.0,43.0,43.0,43.0,43.0,43.0,43.0,43.0,43.0,45.0,44.0,44.0,44.0,44.0,44.0,44.0,45.0,44.0,43.0,43.0,42.0,42.0,43.0,43.0,43.0,40.0,40.0,40.0,59.0,59.0,59.0,60.0,60.0,59.0,59.0,60.0,60.0,60.0,60.0,60.0,60.0,61.0,61.0,61.0,61.0,61.0,61.0,61.0,62.0,62.0,62.0,62.0,62.0,62.0,62.0,62.0,63.0,63.0,0.0,0.0,0.0,0.0,0.0,0.0,0.0,0.0
0.0,0.0,53.0,53.0,51.0,51.0,50.0,50.0,50.0,49.0,49.0,48.0,48.0,48.0,48.0,49.0,49.0,49.0,49.0,49.0,49.0,49.0,49.0,50.0,51.0,51.0,51.0,51.0,51.0,51.0,51.0,52.0,51.0,51.0,51.0,51.0,51.0,51.0,52.0,51.0,51.0,52.0,51.0,51.0,51.0,50.0,51.0,50.0,51.0,51.0,0.0,35.0,35.0,35.0,34.0,34.0,34.0,34.0,34.0,34.0,34.0,34.0,34.0,34.0,35.0,35.0,35.0,34.0,33.0,34.0,34.0,33.0,33.0,33.0,33.0,33.0,33.0,33.0,33.0,33.0,33.0,32.0,32.0,32.0,32.0,32.0,32.0,32.0,32.0,32.0,33.0,33.0,33.0,33.0,33.0,33.0,34.0,34.0,34.0,34.0,34.0,34.0,34.0,35.0,35.0,36.0,36.0,36.0,36.0,36.0,36.0,36.0,36.0,35.0,35.0,34.0,34.0,34.0,33.0,0.0,0.0,0.0,0.0,33.0,32.0,32.0,32.0,32.0,32.0,32.0,31.0,31.0,31.0,30.0,29.0,29.0,29.0,29.0,29.0,29.0,29.0,29.0,29.0,30.0,30.0,30.0,30.0,30.0,30.0,30.0,31.0,31.0,31.0,31.0,31.0,31.0,37.0,36.0,36.0,36.0,36.0,35.0,36.0,35.0,35.0,35.0,35.0,35.0,35.0,41.0,41.0,41.0,41.0,42.0,42.0,42.0,42.0,42.0,42.0,0.0,0.0,0.0,0.0,0.0,0.0,0.0,0.0,0.0,0.0,0.0,0.0,0.0,44.0,44.0,45.0,43.0,43.0,43.0,43.0,42.0,43.0,43.0,42.0,44.0,44.0,43.0,43.0,43.0,43.0,42.0,42.0,42.0,42.0,42.0,42.0,42.0,0.0,0.0,0.0,0.0,0.0,0.0,0.0,0.0,0.0,0.0,0.0,0.0,0.0,0.0,0.0,0.0,0.0,0.0,0.0,0.0,0.0,0.0,0.0,41.0,40.0,41.0,40.0,40.0,40.0,41.0,0.0,0.0,0.0,0.0,0.0,0.0,0.0,0.0,0.0,44.0,43.0,42.0,43.0,43.0,43.0,0.0,43.0,0.0,0.0,44.0,44.0,44.0,44.0,44.0,44.0,40.0,40.0,40.0,41.0,41.0,41.0,43.0,40.0,40.0,40.0,40.0,59.0,59.0,59.0,60.0,60.0,59.0,59.0,60.0,60.0,60.0,61.0,61.0,60.0,61.0,61.0,61.0,61.0,61.0,61.0,61.0,62.0,62.0,62.0,62.0,62.0,63.0,62.0,62.0,63.0,64.0,0.0,0.0,0.0,0.0,0.0,0.0,0.0,0.0
0.0,0.0,0.0,53.0,51.0,51.0,51.0,50.0,50.0,49.0,49.0,48.0,48.0,48.0,48.0,49.0,49.0,49.0,49.0,49.0,50.0,50.0,50.0,50.0,51.0,51.0,52.0,51.0,51.0,51.0,52.0,52.0,52.0,51.0,51.0,51.0,51.0,51.0,52.0,52.0,51.0,52.0,51.0,51.0,51.0,50.0,51.0,50.0,51.0,51.0,0.0,0.0,35.0,35.0,34.0,34.0,34.0,34.0,34.0,34.0,34.0,34.0,34.0,35.0,35.0,35.0,35.0,33.0,32.0,33.0,33.0,33.0,33.0,33.0,33.0,33.0,33.0,33.0,33.0,33.0,32.0,32.0,32.0,32.0,32.0,32.0,32.0,32.0,32.0,32.0,32.0,32.0,32.0,32.0,33.0,33.0,33.0,33.0,33.0,33.0,34.0,34.0,34.0,34.0,35.0,35.0,0.0,34.0,0.0,0.0,0.0,0.0,0.0,0.0,0.0,33.0,33.0,33.0,33.0,0.0,33.0,33.0,33.0,33.0,32.0,32.0,32.0,32.0,32.0,31.0,31.0,31.0,30.0,30.0,30.0,29.0,29.0,29.0,29.0,29.0,29.0,29.0,29.0,30.0,30.0,30.0,30.0,30.0,30.0,30.0,31.0,31.0,31.0,31.0,32.0,31.0,37.0,36.0,36.0,36.0,36.0,35.0,35.0,35.0,35.0,35.0,35.0,35.0,40.0,41.0,41.0,41.0,42.0,41.0,42.0,42.0,42.0,42.0,42.0,0.0,0.0,0.0,0.0,0.0,0.0,0.0,0.0,0.0,0.0,0.0,0.0,0.0,0.0,44.0,0.0,43.0,43.0,43.0,43.0,42.0,42.0,41.0,44.0,44.0,44.0,0.0,43.0,43.0,43.0,42.0,42.0,41.0,42.0,42.0,42.0,41.0,41.0,41.0,0.0,0.0,0.0,0.0,0.0,0.0,0.0,0.0,0.0,0.0,0.0,0.0,0.0,0.0,0.0,0.0,0.0,0.0,0.0,0.0,0.0,0.0,0.0,41.0,40.0,40.0,39.0,0.0,0.0,0.0,0.0,0.0,0.0,0.0,0.0,0.0,0.0,43.0,43.0,43.0,43.0,43.0,43.0,0.0,44.0,0.0,0.0,44.0,39.0,40.0,39.0,40.0,40.0,40.0,40.0,40.0,40.0,41.0,40.0,40.0,40.0,40.0,39.0,39.0,39.0,39.0,59.0,59.0,60.0,59.0,59.0,60.0,60.0,60.0,60.0,61.0,60.0,61.0,62.0,61.0,62.0,62.0,62.0,62.0,63.0,63.0,63.0,62.0,62.0,63.0,62.0,63.0,62.0,64.0,0.0,0.0,0.0,0.0,0.0,0.0,0.0,0.0
0.0,0.0,0.0,53.0,51.0,51.0,51.0,50.0,49.0,49.0,49.0,49.0,48.0,49.0,48.0,48.0,49.0,49.0,49.0,50.0,50.0,50.0,50.0,50.0,51.0,51.0,51.0,52.0,52.0,52.0,51.0,51.0,52.0,51.0,51.0,51.0,51.0,52.0,52.0,52.0,52.0,51.0,51.0,51.0,51.0,50.0,51.0,50.0,0.0,51.0,0.0,0.0,35.0,35.0,34.0,34.0,34.0,34.0,34.0,31.0,31.0,31.0,31.0,30.0,30.0,30.0,32.0,32.0,32.0,33.0,33.0,33.0,33.0,33.0,33.0,33.0,33.0,33.0,33.0,33.0,32.0,32.0,32.0,32.0,32.0,32.0,32.0,32.0,32.0,32.0,32.0,33.0,33.0,33.0,33.0,33.0,33.0,34.0,34.0,34.0,34.0,34.0,34.0,34.0,34.0,35.0,34.0,0.0,34.0,0.0,0.0,0.0,0.0,0.0,33.0,33.0,33.0,33.0,32.0,33.0,32.0,32.0,33.0,32.0,32.0,32.0,32.0,32.0,31.0,31.0,31.0,31.0,31.0,30.0,30.0,29.0,29.0,29.0,29.0,29.0,29.0,29.0,29.0,29.0,29.0,30.0,30.0,30.0,30.0,30.0,31.0,31.0,31.0,32.0,32.0,31.0,31.0,37.0,36.0,36.0,36.0,36.0,35.0,35.0,35.0,35.0,35.0,40.0,40.0,40.0,41.0,41.0,41.0,42.0,42.0,42.0,42.0,42.0,42.0,42.0,0.0,0.0,0.0,0.0,0.0,0.0,0.0,0.0,0.0,0.0,0.0,0.0,0.0,0.0,0.0,0.0,43.0,43.0,42.0,42.0,42.0,41.0,41.0,43.0,43.0,0.0,43.0,43.0,43.0,42.0,41.0,41.0,41.0,41.0,41.0,41.0,41.0,41.0,0.0,0.0,0.0,0.0,0.0,0.0,0.0,0.0,0.0,0.0,0.0,0.0,0.0,0.0,0.0,0.0,0.0,0.0,0.0,0.0,0.0,0.0,0.0,40.0,40.0,40.0,39.0,0.0,0.0,37.0,37.0,0.0,0.0,0.0,0.0,0.0,0.0,43.0,43.0,43.0,43.0,0.0,0.0,0.0,0.0,0.0,0.0,39.0,40.0,40.0,39.0,40.0,41.0,40.0,40.0,39.0,41.0,41.0,40.0,40.0,40.0,40.0,39.0,39.0,39.0,39.0,39.0,39.0,39.0,39.0,39.0,39.0,39.0,60.0,60.0,60.0,60.0,61.0,61.0,61.0,61.0,62.0,62.0,63.0,63.0,63.0,63.0,62.0,63.0,63.0,63.0,63.0,62.0,63.0,0.0,0.0,0.0,0.0,0.0,0.0,0.0,0.0
0.0,0.0,0.0,0.0,51.0,51.0,51.0,50.0,50.0,49.0,49.0,49.0,49.0,49.0,49.0,48.0,49.0,49.0,49.0,50.0,50.0,50.0,50.0,50.0,51.0,52.0,51.0,52.0,52.0,52.0,51.0,51.0,52.0,51.0,51.0,51.0,51.0,51.0,51.0,52.0,52.0,51.0,52.0,51.0,51.0,51.0,51.0,50.0,0.0,0.0,0.0,0.0,35.0,35.0,35.0,34.0,33.0,33.0,31.0,31.0,31.0,31.0,30.0,30.0,30.0,31.0,32.0,32.0,32.0,32.0,33.0,33.0,33.0,33.0,33.0,33.0,33.0,32.0,32.0,33.0,32.0,32.0,32.0,32.0,32.0,32.0,32.0,32.0,32.0,32.0,32.0,32.0,32.0,32.0,33.0,33.0,33.0,33.0,34.0,34.0,34.0,34.0,34.0,35.0,34.0,34.0,34.0,34.0,34.0,0.0,0.0,33.0,33.0,33.0,33.0,33.0,33.0,33.0,33.0,32.0,32.0,32.0,32.0,32.0,32.0,32.0,32.0,32.0,32.0,31.0,31.0,31.0,31.0,30.0,30.0,29.0,30.0,29.0,29.0,29.0,29.0,29.0,29.0,29.0,29.0,30.0,30.0,30.0,30.0,30.0,31.0,31.0,31.0,32.0,32.0,31.0,31.0,37.0,36.0,36.0,36.0,36.0,36.0,35.0,35.0,35.0,35.0,40.0,40.0,41.0,41.0,41.0,42.0,42.0,42.0,42.0,42.0,42.0,42.0,42.0,0.0,0.0,0.0,0.0,0.0,0.0,0.0,0.0,0.0,0.0,0.0,0.0,0.0,0.0,0.0,0.0,0.0,42.0,41.0,42.0,41.0,41.0,41.0,0.0,0.0,0.0,0.0,0.0,0.0,41.0,41.0,41.0,41.0,41.0,41.0,40.0,0.0,0.0,0.0,0.0,0.0,0.0,0.0,0.0,0.0,0.0,0.0,0.0,0.0,0.0,0.0,0.0,0.0,0.0,0.0,0.0,0.0,0.0,0.0,0.0,0.0,0.0,40.0,39.0,39.0,0.0,0.0,35.0,37.0,37.0,0.0,0.0,0.0,0.0,0.0,0.0,0.0,0.0,0.0,0.0,0.0,0.0,0.0,0.0,0.0,0.0,0.0,40.0,39.0,41.0,41.0,40.0,40.0,40.0,40.0,40.0,41.0,40.0,40.0,40.0,39.0,39.0,39.0,39.0,39.0,39.0,39.0,39.0,39.0,39.0,39.0,39.0,60.0,60.0,60.0,61.0,62.0,62.0,62.0,62.0,62.0,63.0,63.0,63.0,62.0,62.0,62.0,63.0,63.0,63.0,63.0,63.0,0.0,0.0,0.0,0.0,0.0,0.0,0.0,0.0
0.0,0.0,0.0,0.0,0.0,52.0,51.0,50.0,50.0,49.0,49.0,49.0,49.0,49.0,49.0,49.0,49.0,49.0,50.0,50.0,50.0,50.0,50.0,50.0,51.0,52.0,52.0,51.0,52.0,52.0,52.0,51.0,51.0,51.0,51.0,51.0,51.0,51.0,51.0,52.0,52.0,52.0,51.0,51.0,51.0,51.0,51.0,0.0,0.0,0.0,0.0,0.0,0.0,35.0,35.0,34.0,33.0,31.0,31.0,31.0,31.0,30.0,30.0,30.0,31.0,31.0,31.0,32.0,32.0,31.0,32.0,33.0,33.0,33.0,33.0,33.0,32.0,33.0,32.0,32.0,32.0,32.0,32.0,32.0,32.0,32.0,32.0,32.0,32.0,32.0,32.0,32.0,32.0,32.0,33.0,33.0,33.0,33.0,34.0,34.0,34.0,34.0,34.0,34.0,34.0,34.0,34.0,34.0,0.0,0.0,33.0,33.0,33.0,33.0,33.0,33.0,33.0,33.0,33.0,33.0,32.0,32.0,33.0,32.0,32.0,32.0,32.0,32.0,32.0,31.0,31.0,31.0,30.0,30.0,30.0,30.0,30.0,29.0,29.0,29.0,29.0,29.0,29.0,29.0,29.0,29.0,30.0,30.0,30.0,30.0,30.0,31.0,31.0,31.0,32.0,32.0,32.0,37.0,36.0,36.0,36.0,36.0,36.0,35.0,35.0,35.0,39.0,40.0,40.0,41.0,41.0,41.0,41.0,42.0,42.0,42.0,42.0,42.0,42.0,42.0,0.0,0.0,0.0,0.0,0.0,0.0,0.0,0.0,0.0,0.0,0.0,0.0,0.0,0.0,0.0,0.0,0.0,0.0,0.0,41.0,41.0,0.0,0.0,0.0,0.0,0.0,0.0,0.0,0.0,41.0,41.0,41.0,41.0,41.0,41.0,40.0,0.0,0.0,0.0,0.0,0.0,0.0,0.0,0.0,0.0,0.0,0.0,37.0,0.0,0.0,0.0,0.0,0.0,0.0,0.0,0.0,0.0,0.0,0.0,0.0,0.0,40.0,40.0,40.0,40.0,35.0,35.0,35.0,35.0,37.0,0.0,37.0,38.0,38.0,0.0,0.0,0.0,0.0,0.0,0.0,0.0,0.0,0.0,0.0,0.0,0.0,0.0,0.0,41.0,41.0,41.0,40.0,40.0,40.0,40.0,0.0,40.0,40.0,40.0,40.0,39.0,39.0,39.0,39.0,39.0,39.0,39.0,38.0,39.0,39.0,39.0,39.0,60.0,60.0,60.0,61.0,62.0,62.0,62.0,62.0,63.0,63.0,63.0,63.0,62.0,62.0,62.0,63.0,62.0,63.0,63.0,63.0,0.0,0.0,0.0,0.0,0.0,0.0,0.0,0.0
0.0,0.0,0.0,0.0,50.0,51.0,51.0,50.0,50.0,50.0,49.0,49.0,49.0,49.0,49.0,49.0,49.0,49.0,50.0,50.0,50.0,50.0,50.0,50.0,50.0,51.0,52.0,52.0,52.0,52.0,52.0,51.0,51.0,51.0,51.0,51.0,51.0,51.0,52.0,53.0,52.0,52.0,52.0,52.0,51.0,52.0,0.0,0.0,0.0,0.0,0.0,0.0,0.0,35.0,35.0,36.0,36.0,36.0,31.0,31.0,31.0,30.0,30.0,30.0,30.0,30.0,31.0,31.0,31.0,31.0,31.0,33.0,33.0,33.0,33.0,33.0,32.0,32.0,32.0,32.0,32.0,32.0,32.0,32.0,32.0,32.0,32.0,32.0,32.0,32.0,32.0,32.0,32.0,32.0,33.0,33.0,33.0,33.0,34.0,34.0,34.0,34.0,34.0,34.0,34.0,34.0,34.0,34.0,0.0,0.0,33.0,33.0,33.0,33.0,33.0,33.0,33.0,33.0,33.0,32.0,32.0,32.0,32.0,32.0,32.0,32.0,32.0,32.0,32.0,31.0,31.0,30.0,30.0,30.0,30.0,30.0,30.0,30.0,29.0,29.0,29.0,29.0,29.0,29.0,29.0,29.0,29.0,30.0,30.0,30.0,30.0,31.0,31.0,31.0,31.0,31.0,32.0,36.0,36.0,36.0,36.0,36.0,35.0,35.0,35.0,35.0,39.0,39.0,40.0,40.0,41.0,41.0,41.0,41.0,41.0,41.0,42.0,42.0,42.0,42.0,0.0,0.0,0.0,0.0,0.0,0.0,0.0,0.0,0.0,0.0,0.0,0.0,0.0,39.0,39.0,39.0,38.0,38.0,0.0,41.0,0.0,0.0,0.0,0.0,0.0,0.0,36.0,0.0,0.0,41.0,41.0,41.0,41.0,40.0,40.0,40.0,0.0,0.0,0.0,0.0,0.0,36.0,36.0,36.0,36.0,36.0,37.0,37.0,37.0,38.0,38.0,38.0,37.0,0.0,0.0,0.0,36.0,0.0,0.0,0.0,0.0,0.0,40.0,40.0,40.0,40.0,35.0,35.0,37.0,36.0,0.0,37.0,37.0,38.0,0.0,0.0,0.0,0.0,0.0,0.0,0.0,0.0,0.0,0.0,0.0,0.0,0.0,0.0,41.0,41.0,40.0,40.0,40.0,40.0,0.0,0.0,0.0,39.0,0.0,39.0,39.0,39.0,39.0,39.0,35.0,35.0,35.0,39.0,39.0,0.0,38.0,38.0,37.0,36.0,36.0,61.0,62.0,62.0,62.0,62.0,62.0,63.0,63.0,63.0,62.0,63.0,63.0,63.0,63.0,63.0,63.0,64.0,0.0,0.0,0.0,0.0,0.0,0.0,0.0,0.0
0.0,0.0,0.0,0.0,0.0,51.0,51.0,50.0,50.0,50.0,49.0,49.0,49.0,49.0,49.0,48.0,49.0,49.0,50.0,50.0,50.0,50.0,50.0,50.0,50.0,51.0,51.0,52.0,52.0,52.0,52.0,51.0,51.0,51.0,51.0,51.0,51.0,51.0,52.0,53.0,52.0,52.0,52.0,52.0,52.0,0.0,0.0,0.0,0.0,0.0,35.0,35.0,36.0,36.0,36.0,36.0,36.0,36.0,37.0,37.0,31.0,30.0,30.0,30.0,30.0,30.0,30.0,31.0,31.0,31.0,31.0,33.0,33.0,33.0,33.0,33.0,32.0,32.0,32.0,32.0,32.0,32.0,32.0,32.0,32.0,32.0,32.0,32.0,32.0,32.0,32.0,32.0,32.0,33.0,33.0,33.0,33.0,34.0,34.0,34.0,34.0,34.0,34.0,34.0,34.0,34.0,0.0,0.0,0.0,0.0,33.0,33.0,33.0,33.0,33.0,33.0,33.0,33.0,32.0,32.0,32.0,32.0,32.0,32.0,32.0,32.0,32.0,32.0,31.0,31.0,31.0,30.0,30.0,30.0,30.0,30.0,30.0,30.0,29.0,29.0,29.0,29.0,29.0,29.0,29.0,29.0,29.0,30.0,30.0,30.0,30.0,31.0,31.0,31.0,31.0,31.0,32.0,37.0,36.0,36.0,36.0,36.0,35.0,35.0,35.0,38.0,38.0,39.0,39.0,40.0,40.0,40.0,40.0,40.0,41.0,41.0,41.0,41.0,41.0,41.0,41.0,0.0,0.0,0.0,0.0,0.0,0.0,0.0,0.0,0.0,0.0,39.0,39.0,39.0,39.0,38.0,38.0,38.0,38.0,38.0,38.0,38.0,38.0,38.0,37.0,37.0,36.0,36.0,37.0,36.0,41.0,40.0,40.0,40.0,0.0,0.0,0.0,0.0,0.0,36.0,36.0,36.0,36.0,36.0,36.0,36.0,36.0,37.0,37.0,37.0,38.0,38.0,37.0,37.0,37.0,36.0,36.0,0.0,0.0,0.0,35.0,35.0,35.0,35.0,35.0,36.0,36.0,36.0,36.0,36.0,36.0,37.0,36.0,38.0,37.0,0.0,0.0,0.0,0.0,0.0,0.0,0.0,0.0,0.0,0.0,0.0,0.0,0.0,41.0,42.0,0.0,0.0,0.0,0.0,0.0,0.0,0.0,0.0,0.0,0.0,39.0,34.0,34.0,34.0,34.0,34.0,34.0,34.0,34.0,0.0,0.0,0.0,36.0,36.0,36.0,0.0,62.0,62.0,62.0,62.0,63.0,63.0,63.0,63.0,63.0,63.0,63.0,64.0,63.0,64.0,64.0,64.0,0.0,0.0,0.0,0.0,0.0,0.0,0.0,0.0
0.0,0.0,0.0,0.0,0.0,0.0,52.0,51.0,50.0,50.0,50.0,49.0,49.0,49.0,49.0,49.0,49.0,49.0,49.0,50.0,50.0,50.0,50.0,50.0,51.0,50.0,51.0,52.0,52.0,52.0,52.0,51.0,51.0,51.0,51.0,51.0,51.0,51.0,52.0,53.0,52.0,52.0,52.0,52.0,51.0,0.0,0.0,0.0,36.0,36.0,36.0,36.0,36.0,36.0,36.0,36.0,36.0,36.0,37.0,37.0,31.0,30.0,30.0,30.0,30.0,30.0,30.0,30.0,30.0,0.0,0.0,33.0,33.0,33.0,33.0,33.0,32.0,32.0,32.0,32.0,32.0,32.0,32.0,32.0,32.0,32.0,32.0,32.0,32.0,32.0,32.0,32.0,32.0,33.0,33.0,33.0,33.0,33.0,34.0,34.0,34.0,34.0,34.0,34.0,34.0,34.0,0.0,34.0,0.0,0.0,33.0,33.0,31.0,33.0,33.0,33.0,33.0,33.0,32.0,32.0,32.0,32.0,32.0,0.0,32.0,32.0,32.0,32.0,32.0,31.0,32.0,30.0,30.0,30.0,30.0,30.0,30.0,30.0,29.0,29.0,29.0,30.0,29.0,30.0,29.0,29.0,30.0,30.0,30.0,30.0,31.0,31.0,31.0,31.0,31.0,31.0,32.0,37.0,36.0,36.0,36.0,36.0,36.0,35.0,35.0,38.0,38.0,39.0,39.0,39.0,40.0,40.0,40.0,40.0,41.0,41.0,41.0,41.0,41.0,41.0,40.0,40.0,40.0,39.0,39.0,39.0,0.0,0.0,0.0,39.0,39.0,39.0,39.0,39.0,39.0,38.0,38.0,38.0,38.0,37.0,37.0,38.0,37.0,37.0,37.0,37.0,36.0,0.0,36.0,36.0,35.0,35.0,35.0,35.0,35.0,35.0,35.0,35.0,0.0,35.0,35.0,36.0,36.0,36.0,35.0,35.0,36.0,37.0,37.0,37.0,37.0,37.0,37.0,37.0,37.0,36.0,36.0,36.0,0.0,36.0,36.0,36.0,36.0,36.0,36.0,36.0,36.0,36.0,36.0,36.0,37.0,37.0,37.0,38.0,38.0,0.0,0.0,0.0,0.0,0.0,0.0,0.0,0.0,0.0,0.0,0.0,0.0,0.0,0.0,0.0,0.0,0.0,0.0,0.0,0.0,0.0,0.0,35.0,35.0,34.0,34.0,34.0,34.0,34.0,34.0,34.0,34.0,34.0,34.0,34.0,0.0,0.0,35.0,35.0,35.0,0.0,62.0,62.0,62.0,62.0,63.0,63.0,63.0,63.0,63.0,63.0,63.0,63.0,63.0,64.0,64.0,64.0,0.0,0.0,0.0,0.0,0.0,0.0,0.0,0.0
0.0,0.0,0.0,0.0,0.0,0.0,0.0,51.0,50.0,50.0,50.0,50.0,49.0,49.0,49.0,49.0,49.0,49.0,49.0,50.0,50.0,50.0,50.0,50.0,51.0,51.0,50.0,51.0,52.0,52.0,52.0,51.0,51.0,52.0,52.0,51.0,51.0,51.0,52.0,52.0,52.0,0.0,0.0,0.0,0.0,0.0,0.0,0.0,0.0,36.0,36.0,36.0,36.0,36.0,36.0,36.0,36.0,36.0,36.0,37.0,31.0,30.0,31.0,30.0,30.0,30.0,30.0,30.0,30.0,0.0,0.0,33.0,33.0,33.0,33.0,33.0,32.0,32.0,32.0,32.0,32.0,32.0,32.0,32.0,33.0,33.0,33.0,32.0,32.0,32.0,32.0,33.0,33.0,33.0,33.0,33.0,33.0,33.0,34.0,34.0,34.0,34.0,34.0,34.0,34.0,34.0,33.0,34.0,0.0,0.0,0.0,0.0,30.0,30.0,33.0,33.0,33.0,33.0,33.0,32.0,32.0,0.0,0.0,0.0,0.0,0.0,0.0,32.0,32.0,32.0,31.0,31.0,30.0,30.0,30.0,30.0,30.0,30.0,30.0,29.0,30.0,30.0,30.0,30.0,29.0,30.0,30.0,30.0,30.0,31.0,31.0,31.0,31.0,31.0,31.0,31.0,32.0,37.0,36.0,36.0,36.0,36.0,36.0,37.0,37.0,38.0,38.0,38.0,39.0,39.0,39.0,40.0,40.0,40.0,40.0,40.0,40.0,41.0,41.0,40.0,40.0,40.0,40.0,40.0,39.0,39.0,39.0,0.0,0.0,39.0,39.0,39.0,39.0,39.0,39.0,38.0,38.0,38.0,38.0,37.0,37.0,37.0,36.0,37.0,37.0,36.0,36.0,36.0,36.0,36.0,35.0,35.0,35.0,35.0,35.0,35.0,35.0,35.0,0.0,35.0,35.0,36.0,36.0,35.0,35.0,35.0,34.0,37.0,37.0,37.0,37.0,37.0,37.0,37.0,37.0,36.0,36.0,36.0,36.0,36.0,36.0,35.0,35.0,36.0,36.0,36.0,36.0,36.0,36.0,36.0,36.0,37.0,37.0,37.0,0.0,0.0,0.0,0.0,0.0,0.0,0.0,0.0,0.0,0.0,0.0,0.0,0.0,0.0,0.0,0.0,0.0,0.0,0.0,0.0,0.0,0.0,0.0,36.0,35.0,34.0,34.0,34.0,34.0,34.0,34.0,34.0,34.0,34.0,34.0,34.0,0.0,0.0,0.0,0.0,0.0,0.0,33.0,33.0,33.0,63.0,63.0,63.0,63.0,63.0,63.0,63.0,63.0,64.0,64.0,64.0,64.0,0.0,0.0,0.0,0.0,0.0,0.0,0.0,0.0,0.0
0.0,0.0,0.0,0.0,0.0,0.0,0.0,51.0,51.0,50.0,50.0,50.0,49.0,49.0,49.0,49.0,49.0,49.0,49.0,50.0,50.0,50.0,50.0,50.0,51.0,51.0,50.0,50.0,52.0,52.0,52.0,52.0,51.0,52.0,52.0,51.0,51.0,51.0,52.0,52.0,52.0,0.0,0.0,0.0,0.0,0.0,0.0,0.0,35.0,35.0,35.0,35.0,36.0,36.0,36.0,36.0,36.0,36.0,36.0,37.0,31.0,31.0,31.0,31.0,30.0,30.0,30.0,30.0,30.0,0.0,0.0,0.0,33.0,33.0,33.0,32.0,32.0,32.0,32.0,32.0,33.0,33.0,32.0,32.0,33.0,33.0,33.0,32.0,33.0,33.0,33.0,33.0,33.0,33.0,33.0,33.0,33.0,33.0,34.0,34.0,34.0,34.0,34.0,34.0,34.0,34.0,33.0,0.0,0.0,0.0,30.0,30.0,30.0,30.0,30.0,30.0,0.0,0.0,0.0,0.0,0.0,0.0,0.0,0.0,36.0,0.0,0.0,0.0,32.0,30.0,31.0,31.0,30.0,30.0,30.0,30.0,30.0,30.0,30.0,30.0,30.0,30.0,30.0,30.0,30.0,30.0,30.0,30.0,30.0,31.0,31.0,31.0,31.0,31.0,31.0,31.0,32.0,32.0,37.0,36.0,36.0,36.0,36.0,37.0,37.0,38.0,38.0,38.0,39.0,39.0,39.0,39.0,37.0,37.0,40.0,40.0,40.0,40.0,40.0,40.0,40.0,40.0,40.0,39.0,39.0,39.0,38.0,0.0,0.0,0.0,0.0,39.0,39.0,39.0,39.0,38.0,38.0,38.0,37.0,37.0,37.0,37.0,36.0,36.0,36.0,36.0,36.0,36.0,36.0,36.0,35.0,36.0,36.0,35.0,35.0,35.0,35.0,35.0,35.0,35.0,36.0,36.0,36.0,35.0,35.0,35.0,35.0,36.0,0.0,0.0,37.0,37.0,37.0,37.0,36.0,36.0,36.0,36.0,36.0,36.0,35.0,35.0,35.0,36.0,36.0,35.0,36.0,36.0,36.0,36.0,37.0,36.0,36.0,0.0,0.0,0.0,0.0,0.0,0.0,0.0,0.0,0.0,0.0,0.0,0.0,0.0,0.0,0.0,0.0,0.0,0.0,0.0,0.0,33.0,33.0,33.0,33.0,33.0,33.0,34.0,34.0,34.0,34.0,34.0,34.0,34.0,35.0,35.0,0.0,34.0,0.0,0.0,0.0,0.0,0.0,0.0,0.0,33.0,33.0,33.0,33.0,63.0,63.0,63.0,63.0,63.0,63.0,64.0,64.0,64.0,0.0,0.0,0.0,0.0,0.0,0.0,0.0,0.0,0.0,0.0
0.0,0.0,0.0,0.0,0.0,0.0,0.0,0.0,51.0,50.0,50.0,50.0,50.0,49.0,49.0,49.0,49.0,50.0,50.0,50.0,50.0,50.0,50.0,51.0,51.0,51.0,51.0,51.0,52.0,52.0,52.0,52.0,51.0,52.0,52.0,51.0,51.0,52.0,51.0,52.0,52.0,0.0,0.0,0.0,0.0,0.0,0.0,35.0,35.0,35.0,35.0,35.0,36.0,36.0,36.0,36.0,36.0,36.0,36.0,37.0,31.0,31.0,31.0,31.0,30.0,30.0,30.0,30.0,30.0,0.0,0.0,0.0,34.0,33.0,33.0,33.0,32.0,33.0,33.0,33.0,33.0,33.0,32.0,32.0,33.0,32.0,33.0,33.0,33.0,33.0,33.0,33.0,33.0,33.0,33.0,33.0,33.0,33.0,34.0,33.0,34.0,34.0,34.0,34.0,34.0,33.0,33.0,0.0,0.0,0.0,0.0,30.0,30.0,30.0,29.0,29.0,29.0,37.0,29.0,28.0,28.0,28.0,0.0,36.0,36.0,36.0,36.0,36.0,30.0,30.0,30.0,30.0,30.0,30.0,30.0,30.0,30.0,30.0,30.0,30.0,30.0,30.0,30.0,30.0,30.0,30.0,30.0,30.0,30.0,31.0,31.0,31.0,31.0,31.0,31.0,31.0,32.0,32.0,37.0,37.0,37.0,36.0,36.0,37.0,37.0,37.0,38.0,38.0,39.0,39.0,39.0,39.0,37.0,37.0,39.0,39.0,39.0,39.0,40.0,39.0,39.0,39.0,39.0,39.0,38.0,38.0,38.0,0.0,0.0,0.0,0.0,0.0,39.0,38.0,39.0,38.0,38.0,38.0,37.0,37.0,35.0,35.0,35.0,34.0,34.0,34.0,36.0,36.0,36.0,0.0,0.0,0.0,36.0,0.0,0.0,0.0,0.0,0.0,0.0,0.0,35.0,35.0,35.0,35.0,34.0,34.0,33.0,33.0,0.0,0.0,37.0,37.0,37.0,36.0,36.0,36.0,36.0,36.0,36.0,37.0,33.0,33.0,33.0,34.0,34.0,36.0,36.0,36.0,36.0,37.0,36.0,36.0,36.0,0.0,0.0,0.0,0.0,0.0,0.0,0.0,0.0,0.0,0.0,0.0,0.0,0.0,0.0,0.0,0.0,0.0,0.0,0.0,0.0,32.0,33.0,33.0,33.0,33.0,33.0,33.0,34.0,34.0,34.0,34.0,34.0,34.0,34.0,34.0,34.0,0.0,0.0,0.0,34.0,0.0,0.0,0.0,33.0,33.0,33.0,33.0,32.0,33.0,33.0,33.0,63.0,63.0,63.0,63.0,64.0,64.0,0.0,0.0,0.0,0.0,0.0,0.0,0.0,0.0,0.0,0.0
0.0,0.0,0.0,0.0,0.0,0.0,0.0,0.0,0.0,51.0,50.0,50.0,50.0,49.0,49.0,50.0,49.0,50.0,50.0,50.0,50.0,50.0,50.0,51.0,51.0,51.0,51.0,51.0,52.0,52.0,52.0,52.0,51.0,52.0,52.0,52.0,51.0,51.0,51.0,52.0,52.0,52.0,0.0,0.0,33.0,0.0,0.0,35.0,35.0,35.0,35.0,35.0,35.0,36.0,36.0,36.0,36.0,36.0,37.0,31.0,31.0,31.0,31.0,31.0,30.0,30.0,30.0,30.0,30.0,0.0,0.0,0.0,0.0,0.0,0.0,0.0,33.0,33.0,33.0,33.0,33.0,32.0,32.0,32.0,32.0,33.0,33.0,33.0,33.0,33.0,33.0,33.0,33.0,33.0,33.0,33.0,33.0,33.0,33.0,34.0,34.0,34.0,34.0,34.0,33.0,33.0,33.0,0.0,31.0,31.0,30.0,30.0,30.0,29.0,29.0,29.0,29.0,37.0,37.0,28.0,37.0,37.0,37.0,36.0,36.0,36.0,37.0,36.0,36.0,36.0,30.0,30.0,30.0,30.0,30.0,30.0,30.0,30.0,30.0,30.0,30.0,30.0,31.0,30.0,30.0,30.0,30.0,30.0,31.0,30.0,31.0,31.0,31.0,31.0,31.0,32.0,32.0,32.0,32.0,33.0,34.0,37.0,37.0,35.0,36.0,38.0,35.0,38.0,39.0,36.0,36.0,37.0,37.0,37.0,38.0,38.0,38.0,39.0,39.0,39.0,39.0,39.0,39.0,38.0,38.0,38.0,37.0,36.0,37.0,0.0,0.0,0.0,0.0,0.0,0.0,38.0,38.0,36.0,36.0,36.0,37.0,34.0,34.0,34.0,34.0,34.0,34.0,36.0,36.0,0.0,0.0,0.0,0.0,0.0,0.0,0.0,0.0,35.0,34.0,34.0,35.0,35.0,35.0,0.0,33.0,33.0,33.0,37.0,0.0,0.0,0.0,36.0,0.0,34.0,0.0,0.0,0.0,33.0,33.0,35.0,33.0,33.0,33.0,34.0,34.0,34.0,36.0,0.0,0.0,33.0,33.0,0.0,0.0,0.0,35.0,34.0,0.0,0.0,0.0,0.0,33.0,0.0,0.0,0.0,0.0,0.0,0.0,0.0,32.0,32.0,33.0,33.0,32.0,32.0,32.0,32.0,32.0,33.0,33.0,33.0,34.0,34.0,34.0,34.0,34.0,34.0,34.0,32.0,32.0,32.0,0.0,33.0,33.0,33.0,32.0,0.0,33.0,33.0,33.0,33.0,33.0,33.0,33.0,33.0,33.0,33.0,33.0,64.0,33.0,0.0,0.0,0.0,0.0,0.0,0.0,0.0,0.0,0.0,0.0,0.0
0.0,0.0,0.0,0.0,0.0,0.0,0.0,0.0,0.0,51.0,50.0,50.0,50.0,50.0,49.0,50.0,49.0,50.0,50.0,50.0,50.0,50.0,50.0,51.0,51.0,51.0,51.0,51.0,52.0,52.0,52.0,52.0,52.0,52.0,52.0,52.0,51.0,51.0,51.0,51.0,51.0,52.0,0.0,0.0,33.0,35.0,35.0,35.0,35.0,35.0,35.0,35.0,35.0,35.0,36.0,36.0,36.0,36.0,37.0,31.0,31.0,31.0,31.0,31.0,30.0,30.0,30.0,30.0,30.0,0.0,0.0,0.0,0.0,0.0,0.0,0.0,0.0,33.0,33.0,33.0,33.0,33.0,32.0,32.0,32.0,33.0,33.0,33.0,33.0,33.0,32.0,33.0,32.0,32.0,32.0,32.0,32.0,33.0,33.0,33.0,34.0,34.0,34.0,33.0,33.0,33.0,0.0,0.0,0.0,0.0,30.0,30.0,30.0,30.0,29.0,29.0,29.0,29.0,29.0,28.0,28.0,37.0,37.0,37.0,37.0,37.0,37.0,36.0,36.0,36.0,29.0,30.0,30.0,30.0,30.0,30.0,30.0,30.0,30.0,30.0,30.0,30.0,30.0,30.0,30.0,30.0,30.0,31.0,31.0,31.0,31.0,31.0,31.0,31.0,31.0,32.0,32.0,32.0,33.0,33.0,34.0,36.0,36.0,36.0,36.0,35.0,35.0,36.0,36.0,36.0,36.0,36.0,36.0,36.0,36.0,34.0,33.0,0.0,39.0,0.0,39.0,35.0,34.0,34.0,37.0,37.0,37.0,36.0,36.0,0.0,0.0,0.0,0.0,0.0,36.0,36.0,36.0,36.0,36.0,36.0,36.0,36.0,37.0,34.0,34.0,34.0,36.0,36.0,36.0,0.0,0.0,0.0,36.0,0.0,0.0,0.0,35.0,35.0,34.0,34.0,34.0,0.0,35.0,36.0,36.0,33.0,33.0,33.0,0.0,36.0,0.0,0.0,0.0,0.0,0.0,34.0,0.0,35.0,35.0,35.0,33.0,33.0,33.0,33.0,33.0,34.0,34.0,0.0,33.0,0.0,0.0,0.0,0.0,0.0,35.0,34.0,0.0,35.0,33.0,33.0,33.0,32.0,32.0,32.0,32.0,32.0,32.0,33.0,32.0,32.0,32.0,32.0,32.0,32.0,32.0,32.0,32.0,32.0,32.0,32.0,32.0,34.0,34.0,33.0,32.0,32.0,32.0,32.0,32.0,32.0,32.0,32.0,32.0,32.0,32.0,32.0,33.0,33.0,33.0,33.0,33.0,33.0,33.0,33.0,33.0,33.0,33.0,33.0,33.0,33.0,33.0,33.0,0.0,0.0,0.0,0.0,0.0,0.0,0.0,0.0
0.0,0.0,0.0,0.0,0.0,0.0,0.0,0.0,0.0,51.0,51.0,50.0,50.0,50.0,50.0,50.0,50.0,50.0,50.0,50.0,50.0,50.0,50.0,51.0,51.0,51.0,51.0,52.0,51.0,52.0,52.0,52.0,52.0,52.0,52.0,52.0,51.0,51.0,51.0,52.0,52.0,52.0,51.0,0.0,34.0,34.0,35.0,35.0,35.0,35.0,35.0,35.0,35.0,35.0,36.0,36.0,36.0,36.0,37.0,31.0,31.0,31.0,31.0,31.0,31.0,30.0,30.0,30.0,30.0,0.0,0.0,0.0,0.0,0.0,0.0,0.0,0.0,0.0,33.0,33.0,33.0,32.0,32.0,32.0,31.0,31.0,31.0,32.0,32.0,32.0,33.0,33.0,33.0,32.0,32.0,32.0,32.0,32.0,32.0,32.0,32.0,32.0,33.0,33.0,33.0,0.0,0.0,0.0,0.0,0.0,30.0,30.0,29.0,29.0,29.0,29.0,29.0,37.0,29.0,29.0,28.0,37.0,37.0,37.0,37.0,37.0,37.0,37.0,36.0,28.0,29.0,29.0,30.0,30.0,30.0,30.0,30.0,29.0,29.0,29.0,29.0,30.0,30.0,30.0,30.0,30.0,30.0,31.0,30.0,31.0,31.0,31.0,31.0,31.0,31.0,32.0,32.0,32.0,32.0,33.0,34.0,36.0,36.0,36.0,35.0,36.0,36.0,36.0,36.0,36.0,36.0,36.0,36.0,36.0,34.0,0.0,33.0,33.0,33.0,33.0,34.0,34.0,34.0,34.0,34.0,34.0,36.0,36.0,36.0,0.0,0.0,0.0,0.0,0.0,0.0,0.0,36.0,36.0,36.0,36.0,36.0,37.0,36.0,34.0,34.0,34.0,33.0,37.0,36.0,36.0,36.0,36.0,36.0,35.0,35.0,35.0,35.0,35.0,35.0,34.0,34.0,35.0,35.0,36.0,36.0,36.0,36.0,35.0,35.0,36.0,0.0,0.0,0.0,0.0,0.0,34.0,34.0,35.0,35.0,34.0,34.0,34.0,33.0,33.0,33.0,34.0,33.0,33.0,33.0,33.0,33.0,0.0,0.0,33.0,33.0,33.0,33.0,33.0,33.0,33.0,33.0,33.0,33.0,33.0,33.0,33.0,33.0,33.0,32.0,32.0,32.0,32.0,32.0,32.0,32.0,32.0,32.0,32.0,32.0,32.0,32.0,32.0,32.0,32.0,32.0,32.0,32.0,32.0,32.0,32.0,32.0,32.0,32.0,32.0,32.0,32.0,32.0,33.0,33.0,33.0,33.0,33.0,33.0,33.0,33.0,33.0,33.0,33.0,33.0,33.0,33.0,33.0,0.0,0.0,0.0,0.0,0.0,0.0,0.0,0.0
0.0,0.0,0.0,0.0,0.0,0.0,0.0,0.0,0.0,50.0,51.0,50.0,51.0,50.0,51.0,50.0,50.0,51.0,50.0,50.0,51.0,50.0,50.0,50.0,51.0,51.0,51.0,51.0,51.0,52.0,52.0,52.0,52.0,51.0,52.0,52.0,52.0,51.0,51.0,52.0,53.0,52.0,52.0,51.0,50.0,50.0,35.0,35.0,35.0,35.0,35.0,35.0,35.0,35.0,35.0,35.0,36.0,36.0,36.0,31.0,31.0,31.0,31.0,31.0,31.0,30.0,30.0,30.0,30.0,0.0,0.0,0.0,0.0,0.0,0.0,0.0,0.0,0.0,33.0,33.0,32.0,33.0,33.0,33.0,31.0,31.0,0.0,32.0,32.0,33.0,32.0,33.0,33.0,32.0,32.0,32.0,32.0,32.0,32.0,32.0,32.0,32.0,33.0,33.0,0.0,0.0,0.0,0.0,0.0,0.0,0.0,30.0,30.0,29.0,29.0,29.0,29.0,37.0,37.0,37.0,37.0,37.0,37.0,37.0,37.0,37.0,37.0,37.0,36.0,37.0,28.0,28.0,29.0,29.0,36.0,30.0,30.0,29.0,30.0,30.0,30.0,30.0,30.0,30.0,0.0,0.0,0.0,0.0,0.0,30.0,31.0,31.0,31.0,31.0,31.0,32.0,32.0,37.0,37.0,33.0,34.0,34.0,36.0,36.0,35.0,35.0,35.0,36.0,36.0,36.0,35.0,35.0,36.0,36.0,34.0,34.0,33.0,33.0,33.0,33.0,34.0,34.0,34.0,34.0,34.0,34.0,34.0,35.0,35.0,0.0,0.0,0.0,0.0,0.0,0.0,35.0,36.0,36.0,36.0,36.0,36.0,36.0,36.0,36.0,35.0,36.0,35.0,36.0,36.0,36.0,36.0,36.0,36.0,36.0,35.0,35.0,35.0,35.0,35.0,34.0,35.0,35.0,35.0,35.0,35.0,35.0,35.0,35.0,35.0,35.0,35.0,35.0,34.0,34.0,34.0,34.0,34.0,34.0,34.0,34.0,34.0,34.0,34.0,34.0,34.0,34.0,34.0,33.0,33.0,33.0,33.0,33.0,33.0,33.0,33.0,33.0,33.0,33.0,33.0,33.0,33.0,33.0,33.0,33.0,33.0,33.0,33.0,33.0,32.0,32.0,32.0,32.0,32.0,32.0,32.0,32.0,32.0,32.0,32.0,32.0,32.0,32.0,32.0,32.0,32.0,31.0,31.0,31.0,31.0,32.0,32.0,32.0,32.0,32.0,32.0,32.0,32.0,32.0,32.0,33.0,32.0,33.0,33.0,33.0,33.0,33.0,33.0,33.0,33.0,33.0,33.0,33.0,0.0,0.0,0.0,0.0,0.0,0.0,0.0,0.0
0.0,0.0,0.0,0.0,0.0,0.0,51.0,51.0,51.0,51.0,51.0,51.0,51.0,50.0,51.0,51.0,50.0,51.0,50.0,51.0,51.0,50.0,50.0,51.0,51.0,51.0,51.0,51.0,52.0,52.0,52.0,52.0,52.0,52.0,52.0,52.0,52.0,51.0,52.0,51.0,52.0,51.0,51.0,50.0,50.0,50.0,35.0,35.0,35.0,35.0,35.0,35.0,35.0,35.0,35.0,35.0,36.0,35.0,36.0,36.0,35.0,31.0,31.0,30.0,30.0,30.0,30.0,30.0,30.0,0.0,0.0,0.0,0.0,0.0,0.0,0.0,0.0,0.0,0.0,0.0,32.0,32.0,33.0,32.0,31.0,36.0,36.0,33.0,33.0,33.0,32.0,32.0,33.0,33.0,32.0,32.0,32.0,32.0,32.0,32.0,32.0,32.0,31.0,0.0,0.0,0.0,0.0,0.0,0.0,0.0,0.0,30.0,30.0,30.0,29.0,29.0,29.0,37.0,37.0,37.0,28.0,37.0,37.0,37.0,37.0,37.0,37.0,37.0,36.0,36.0,37.0,36.0,36.0,36.0,36.0,36.0,36.0,36.0,29.0,30.0,30.0,30.0,0.0,0.0,0.0,35.0,0.0,34.0,35.0,35.0,31.0,31.0,31.0,31.0,31.0,37.0,37.0,37.0,0.0,0.0,35.0,34.0,36.0,36.0,35.0,35.0,35.0,36.0,35.0,35.0,35.0,35.0,34.0,34.0,34.0,34.0,33.0,33.0,33.0,33.0,33.0,33.0,33.0,34.0,34.0,34.0,34.0,0.0,0.0,0.0,0.0,0.0,0.0,0.0,35.0,35.0,35.0,35.0,35.0,35.0,35.0,35.0,35.0,35.0,35.0,35.0,35.0,35.0,36.0,36.0,36.0,36.0,36.0,35.0,35.0,35.0,35.0,35.0,34.0,34.0,34.0,34.0,34.0,34.0,35.0,35.0,35.0,35.0,35.0,35.0,35.0,35.0,35.0,34.0,34.0,34.0,34.0,34.0,34.0,34.0,34.0,33.0,34.0,33.0,33.0,34.0,33.0,33.0,33.0,33.0,33.0,33.0,33.0,33.0,33.0,33.0,33.0,33.0,33.0,33.0,33.0,33.0,33.0,32.0,32.0,32.0,32.0,32.0,32.0,32.0,32.0,32.0,32.0,32.0,32.0,32.0,32.0,32.0,32.0,32.0,31.0,32.0,32.0,32.0,32.0,32.0,31.0,31.0,31.0,31.0,31.0,31.0,32.0,32.0,32.0,32.0,32.0,32.0,32.0,33.0,33.0,33.0,33.0,33.0,33.0,33.0,33.0,33.0,33.0,33.0,33.0,33.0,0.0,0.0,0.0,0.0,0.0,0.0,0.0,0.0
0.0,0.0,0.0,0.0,0.0,0.0,52.0,51.0,51.0,51.0,51.0,51.0,51.0,51.0,51.0,51.0,51.0,51.0,51.0,51.0,51.0,50.0,50.0,51.0,51.0,51.0,52.0,51.0,52.0,52.0,52.0,52.0,52.0,52.0,52.0,52.0,52.0,52.0,52.0,52.0,52.0,52.0,51.0,50.0,50.0,49.0,35.0,35.0,35.0,35.0,35.0,35.0,35.0,35.0,35.0,35.0,35.0,35.0,35.0,35.0,35.0,35.0,35.0,37.0,30.0,37.0,37.0,30.0,30.0,0.0,0.0,0.0,0.0,0.0,0.0,0.0,0.0,37.0,37.0,36.0,36.0,36.0,36.0,36.0,31.0,36.0,35.0,35.0,35.0,35.0,35.0,35.0,35.0,35.0,35.0,32.0,32.0,32.0,32.0,32.0,32.0,32.0,0.0,0.0,0.0,0.0,0.0,0.0,0.0,0.0,0.0,30.0,30.0,30.0,30.0,29.0,29.0,37.0,37.0,29.0,29.0,37.0,37.0,37.0,36.0,37.0,37.0,36.0,36.0,36.0,37.0,36.0,36.0,36.0,36.0,36.0,36.0,36.0,36.0,29.0,28.0,28.0,35.0,35.0,35.0,35.0,35.0,34.0,34.0,35.0,35.0,35.0,35.0,35.0,35.0,0.0,35.0,0.0,0.0,35.0,35.0,34.0,34.0,34.0,34.0,35.0,35.0,35.0,35.0,35.0,34.0,34.0,34.0,34.0,34.0,34.0,33.0,33.0,33.0,33.0,32.0,33.0,33.0,34.0,34.0,33.0,34.0,0.0,34.0,0.0,0.0,0.0,35.0,35.0,35.0,34.0,34.0,35.0,35.0,35.0,35.0,35.0,35.0,35.0,35.0,35.0,35.0,35.0,35.0,35.0,35.0,35.0,35.0,35.0,35.0,35.0,35.0,35.0,35.0,34.0,34.0,35.0,35.0,34.0,35.0,35.0,35.0,35.0,35.0,35.0,35.0,35.0,35.0,34.0,34.0,34.0,34.0,34.0,34.0,34.0,34.0,33.0,33.0,33.0,33.0,33.0,33.0,33.0,33.0,33.0,33.0,33.0,33.0,33.0,33.0,33.0,33.0,33.0,33.0,33.0,33.0,33.0,33.0,33.0,32.0,32.0,32.0,32.0,32.0,32.0,32.0,32.0,32.0,32.0,32.0,32.0,32.0,32.0,32.0,31.0,31.0,31.0,32.0,32.0,31.0,31.0,31.0,31.0,31.0,31.0,31.0,31.0,32.0,32.0,32.0,32.0,32.0,32.0,32.0,32.0,32.0,33.0,33.0,33.0,33.0,33.0,33.0,33.0,33.0,33.0,33.0,33.0,0.0,0.0,0.0,0.0,0.0,0.0,0.0,0.0
0.0,0.0,0.0,0.0,0.0,0.0,0.0,52.0,51.0,52.0,51.0,51.0,51.0,51.0,52.0,51.0,51.0,51.0,51.0,51.0,51.0,50.0,50.0,51.0,51.0,51.0,52.0,51.0,52.0,52.0,53.0,52.0,52.0,52.0,52.0,52.0,52.0,52.0,52.0,53.0,52.0,52.0,51.0,0.0,0.0,0.0,0.0,35.0,35.0,35.0,34.0,35.0,35.0,35.0,35.0,35.0,35.0,35.0,35.0,35.0,34.0,35.0,0.0,0.0,34.0,0.0,0.0,0.0,0.0,0.0,0.0,0.0,0.0,35.0,35.0,30.0,29.0,29.0,37.0,36.0,36.0,36.0,36.0,36.0,35.0,35.0,35.0,35.0,35.0,35.0,35.0,35.0,35.0,35.0,35.0,35.0,35.0,35.0,32.0,35.0,32.0,34.0,34.0,34.0,34.0,34.0,34.0,34.0,35.0,0.0,0.0,0.0,37.0,37.0,30.0,37.0,37.0,37.0,37.0,29.0,29.0,37.0,36.0,36.0,36.0,36.0,36.0,36.0,36.0,36.0,36.0,36.0,36.0,36.0,36.0,36.0,36.0,36.0,36.0,36.0,36.0,35.0,35.0,35.0,35.0,35.0,35.0,35.0,35.0,35.0,35.0,35.0,35.0,35.0,35.0,35.0,35.0,35.0,35.0,35.0,35.0,34.0,35.0,35.0,34.0,35.0,34.0,34.0,34.0,34.0,34.0,34.0,33.0,33.0,33.0,33.0,33.0,33.0,33.0,33.0,32.0,33.0,33.0,33.0,33.0,33.0,33.0,34.0,33.0,33.0,33.0,33.0,34.0,34.0,34.0,34.0,34.0,34.0,34.0,34.0,35.0,34.0,34.0,34.0,34.0,35.0,35.0,35.0,35.0,35.0,35.0,35.0,35.0,35.0,35.0,35.0,35.0,35.0,35.0,34.0,35.0,34.0,35.0,35.0,35.0,35.0,35.0,35.0,35.0,35.0,35.0,34.0,34.0,34.0,34.0,34.0,34.0,34.0,34.0,34.0,33.0,33.0,33.0,33.0,33.0,33.0,33.0,33.0,33.0,33.0,33.0,33.0,33.0,33.0,33.0,33.0,33.0,32.0,32.0,32.0,32.0,33.0,32.0,33.0,32.0,32.0,32.0,32.0,32.0,32.0,32.0,32.0,32.0,32.0,32.0,32.0,31.0,31.0,31.0,31.0,31.0,31.0,31.0,31.0,31.0,31.0,31.0,31.0,31.0,31.0,31.0,31.0,32.0,32.0,32.0,32.0,32.0,32.0,32.0,32.0,32.0,33.0,33.0,33.0,33.0,33.0,33.0,33.0,33.0,33.0,33.0,33.0,0.0,0.0,0.0,0.0,0.0,0.0,0.0,0.0
0.0,0.0,0.0,0.0,0.0,0.0,0.0,52.0,52.0,51.0,51.0,51.0,51.0,51.0,51.0,51.0,51.0,51.0,51.0,51.0,51.0,51.0,50.0,51.0,51.0,51.0,51.0,51.0,52.0,52.0,53.0,52.0,52.0,52.0,52.0,52.0,52.0,52.0,53.0,53.0,52.0,52.0,0.0,0.0,0.0,0.0,0.0,0.0,35.0,34.0,34.0,35.0,35.0,35.0,35.0,34.0,34.0,34.0,34.0,35.0,34.0,34.0,0.0,34.0,34.0,0.0,0.0,0.0,0.0,0.0,0.0,0.0,0.0,35.0,35.0,34.0,35.0,35.0,35.0,35.0,35.0,35.0,35.0,35.0,35.0,35.0,35.0,35.0,35.0,35.0,35.0,35.0,35.0,35.0,35.0,35.0,35.0,34.0,34.0,35.0,35.0,34.0,34.0,34.0,34.0,34.0,34.0,34.0,34.0,35.0,35.0,35.0,35.0,36.0,36.0,36.0,36.0,36.0,36.0,37.0,37.0,37.0,36.0,36.0,36.0,36.0,36.0,36.0,36.0,36.0,36.0,36.0,36.0,36.0,36.0,36.0,36.0,36.0,36.0,36.0,36.0,35.0,35.0,35.0,35.0,35.0,35.0,35.0,35.0,35.0,35.0,35.0,35.0,35.0,35.0,35.0,35.0,35.0,35.0,35.0,35.0,34.0,34.0,34.0,34.0,34.0,34.0,34.0,34.0,34.0,33.0,33.0,33.0,33.0,33.0,33.0,33.0,33.0,33.0,33.0,32.0,32.0,33.0,33.0,33.0,33.0,33.0,33.0,33.0,33.0,33.0,33.0,33.0,34.0,34.0,34.0,34.0,34.0,34.0,34.0,35.0,34.0,34.0,34.0,34.0,35.0,35.0,34.0,35.0,35.0,35.0,35.0,35.0,35.0,35.0,35.0,35.0,35.0,35.0,34.0,35.0,34.0,34.0,34.0,34.0,35.0,35.0,35.0,35.0,35.0,34.0,34.0,34.0,34.0,34.0,34.0,34.0,34.0,34.0,34.0,33.0,33.0,33.0,33.0,33.0,33.0,33.0,33.0,33.0,33.0,33.0,33.0,33.0,33.0,32.0,32.0,32.0,32.0,32.0,32.0,32.0,32.0,32.0,32.0,32.0,32.0,32.0,32.0,32.0,32.0,32.0,32.0,32.0,32.0,32.0,32.0,32.0,31.0,31.0,31.0,31.0,31.0,31.0,31.0,31.0,31.0,31.0,31.0,31.0,31.0,31.0,32.0,32.0,32.0,32.0,32.0,32.0,32.0,32.0,32.0,32.0,33.0,33.0,33.0,33.0,33.0,33.0,33.0,33.0,33.0,33.0,33.0,0.0,0.0,0.0,0.0,0.0,0.0,0.0,0.0
0.0,0.0,0.0,0.0,0.0,0.0,0.0,53.0,53.0,53.0,52.0,52.0,51.0,51.0,51.0,51.0,51.0,51.0,51.0,51.0,51.0,51.0,50.0,51.0,51.0,51.0,51.0,52.0,52.0,52.0,53.0,52.0,52.0,52.0,52.0,53.0,52.0,53.0,52.0,52.0,52.0,52.0,0.0,0.0,0.0,0.0,0.0,35.0,35.0,34.0,34.0,34.0,35.0,34.0,34.0,34.0,34.0,34.0,34.0,34.0,34.0,34.0,34.0,34.0,34.0,0.0,0.0,0.0,34.0,0.0,0.0,34.0,34.0,34.0,34.0,34.0,35.0,35.0,35.0,35.0,35.0,35.0,35.0,35.0,35.0,35.0,35.0,35.0,35.0,35.0,35.0,35.0,35.0,35.0,35.0,35.0,35.0,35.0,34.0,34.0,35.0,34.0,34.0,34.0,34.0,34.0,34.0,35.0,34.0,35.0,35.0,35.0,35.0,35.0,35.0,35.0,35.0,35.0,35.0,35.0,37.0,36.0,36.0,36.0,36.0,36.0,36.0,36.0,36.0,36.0,36.0,36.0,36.0,36.0,36.0,36.0,36.0,36.0,36.0,36.0,35.0,35.0,35.0,35.0,35.0,35.0,35.0,35.0,35.0,35.0,35.0,35.0,35.0,35.0,35.0,35.0,35.0,35.0,35.0,35.0,35.0,34.0,34.0,34.0,34.0,34.0,34.0,34.0,34.0,33.0,33.0,33.0,33.0,33.0,33.0,33.0,33.0,33.0,33.0,33.0,32.0,32.0,32.0,33.0,33.0,33.0,33.0,33.0,34.0,33.0,33.0,33.0,33.0,34.0,34.0,34.0,34.0,34.0,34.0,34.0,34.0,34.0,34.0,34.0,34.0,34.0,34.0,34.0,34.0,34.0,35.0,35.0,35.0,35.0,35.0,35.0,35.0,35.0,35.0,34.0,34.0,34.0,34.0,34.0,34.0,34.0,34.0,34.0,34.0,34.0,34.0,34.0,34.0,34.0,34.0,34.0,34.0,34.0,34.0,33.0,33.0,33.0,33.0,33.0,33.0,33.0,33.0,33.0,33.0,33.0,33.0,33.0,32.0,32.0,32.0,32.0,32.0,32.0,32.0,32.0,32.0,32.0,32.0,32.0,32.0,32.0,32.0,32.0,32.0,32.0,32.0,32.0,32.0,32.0,32.0,32.0,32.0,31.0,31.0,31.0,31.0,31.0,31.0,31.0,31.0,31.0,31.0,31.0,31.0,31.0,32.0,32.0,32.0,32.0,32.0,32.0,32.0,32.0,32.0,32.0,32.0,32.0,33.0,33.0,33.0,33.0,33.0,33.0,33.0,33.0,33.0,33.0,0.0,0.0,0.0,0.0,0.0,0.0,0.0,0.0
0.0,0.0,0.0,0.0,0.0,0.0,0.0,0.0,53.0,52.0,52.0,52.0,51.0,51.0,51.0,51.0,51.0,51.0,51.0,51.0,51.0,51.0,51.0,51.0,51.0,51.0,51.0,52.0,51.0,52.0,53.0,53.0,52.0,52.0,52.0,53.0,52.0,53.0,53.0,53.0,52.0,52.0,0.0,0.0,0.0,0.0,0.0,0.0,0.0,0.0,32.0,32.0,32.0,32.0,32.0,32.0,33.0,33.0,33.0,33.0,33.0,33.0,33.0,34.0,34.0,34.0,34.0,34.0,34.0,33.0,34.0,34.0,34.0,34.0,34.0,34.0,34.0,34.0,35.0,35.0,35.0,34.0,34.0,35.0,35.0,35.0,35.0,35.0,35.0,35.0,35.0,35.0,34.0,35.0,34.0,35.0,35.0,34.0,34.0,34.0,35.0,34.0,34.0,34.0,34.0,34.0,35.0,35.0,35.0,35.0,35.0,35.0,35.0,35.0,35.0,35.0,35.0,35.0,35.0,35.0,35.0,35.0,35.0,36.0,36.0,36.0,36.0,36.0,36.0,36.0,36.0,36.0,36.0,36.0,36.0,36.0,36.0,36.0,36.0,35.0,35.0,35.0,35.0,35.0,35.0,35.0,35.0,35.0,35.0,35.0,35.0,35.0,35.0,35.0,35.0,35.0,35.0,35.0,35.0,34.0,35.0,34.0,34.0,34.0,34.0,34.0,33.0,33.0,33.0,33.0,33.0,33.0,33.0,33.0,33.0,33.0,33.0,33.0,33.0,33.0,33.0,32.0,32.0,33.0,33.0,33.0,33.0,33.0,34.0,33.0,33.0,33.0,33.0,34.0,34.0,34.0,34.0,34.0,34.0,34.0,34.0,34.0,34.0,34.0,34.0,34.0,34.0,34.0,34.0,34.0,35.0,35.0,35.0,35.0,35.0,35.0,35.0,35.0,35.0,34.0,35.0,34.0,35.0,34.0,34.0,34.0,35.0,34.0,34.0,34.0,34.0,34.0,34.0,34.0,34.0,34.0,34.0,34.0,34.0,34.0,33.0,33.0,33.0,33.0,33.0,33.0,33.0,33.0,33.0,33.0,33.0,33.0,32.0,32.0,32.0,32.0,32.0,32.0,32.0,32.0,32.0,32.0,32.0,32.0,32.0,32.0,32.0,32.0,32.0,32.0,32.0,32.0,32.0,32.0,32.0,32.0,32.0,32.0,32.0,32.0,32.0,31.0,31.0,31.0,31.0,31.0,31.0,31.0,31.0,31.0,31.0,32.0,32.0,32.0,32.0,32.0,32.0,32.0,32.0,32.0,32.0,33.0,33.0,33.0,33.0,33.0,33.0,33.0,33.0,33.0,33.0,33.0,0.0,0.0,0.0,0.0,0.0,0.0,0.0,0.0
0.0,0.0,0.0,0.0,0.0,0.0,0.0,0.0,53.0,52.0,52.0,52.0,52.0,51.0,51.0,51.0,52.0,51.0,51.0,51.0,51.0,51.0,51.0,51.0,51.0,52.0,51.0,52.0,51.0,51.0,52.0,52.0,52.0,52.0,52.0,53.0,52.0,52.0,52.0,52.0,52.0,52.0,0.0,0.0,0.0,0.0,0.0,0.0,32.0,32.0,32.0,32.0,32.0,32.0,32.0,32.0,33.0,33.0,33.0,33.0,33.0,33.0,33.0,33.0,33.0,33.0,33.0,33.0,33.0,33.0,33.0,34.0,34.0,34.0,34.0,34.0,34.0,34.0,34.0,34.0,34.0,34.0,34.0,34.0,34.0,35.0,34.0,34.0,34.0,35.0,35.0,34.0,34.0,34.0,34.0,34.0,34.0,34.0,34.0,34.0,34.0,34.0,34.0,34.0,34.0,34.0,34.0,35.0,34.0,35.0,35.0,35.0,35.0,35.0,35.0,35.0,35.0,35.0,35.0,35.0,35.0,35.0,35.0,36.0,36.0,36.0,36.0,36.0,36.0,36.0,36.0,36.0,36.0,36.0,36.0,36.0,36.0,35.0,35.0,35.0,35.0,35.0,35.0,35.0,35.0,35.0,35.0,35.0,35.0,35.0,35.0,35.0,35.0,35.0,35.0,35.0,35.0,35.0,35.0,34.0,34.0,34.0,34.0,34.0,33.0,33.0,33.0,33.0,33.0,33.0,33.0,33.0,33.0,33.0,33.0,33.0,33.0,33.0,33.0,33.0,33.0,32.0,32.0,33.0,33.0,33.0,33.0,33.0,34.0,33.0,33.0,33.0,33.0,34.0,34.0,34.0,34.0,34.0,34.0,34.0,34.0,34.0,34.0,34.0,34.0,34.0,34.0,34.0,34.0,34.0,35.0,35.0,35.0,35.0,35.0,35.0,35.0,35.0,35.0,34.0,35.0,34.0,35.0,35.0,35.0,35.0,35.0,35.0,34.0,34.0,34.0,34.0,34.0,34.0,34.0,34.0,34.0,34.0,34.0,33.0,33.0,33.0,33.0,33.0,33.0,33.0,33.0,33.0,33.0,33.0,33.0,33.0,32.0,32.0,32.0,32.0,32.0,32.0,32.0,32.0,32.0,32.0,32.0,32.0,32.0,32.0,32.0,32.0,32.0,32.0,32.0,32.0,32.0,32.0,32.0,32.0,32.0,32.0,32.0,32.0,32.0,32.0,32.0,31.0,31.0,31.0,31.0,31.0,32.0,32.0,32.0,32.0,32.0,32.0,32.0,32.0,32.0,32.0,32.0,32.0,32.0,33.0,33.0,33.0,33.0,33.0,33.0,33.0,33.0,33.0,33.0,0.0,0.0,0.0,0.0,0.0,0.0,0.0,0.0,0.0
0.0,0.0,0.0,0.0,0.0,0.0,0.0,54.0,54.0,52.0,52.0,52.0,52.0,51.0,51.0,51.0,52.0,51.0,51.0,51.0,51.0,51.0,51.0,52.0,51.0,52.0,51.0,52.0,52.0,52.0,52.0,53.0,52.0,52.0,52.0,52.0,52.0,52.0,52.0,52.0,52.0,0.0,0.0,0.0,0.0,0.0,32.0,32.0,32.0,32.0,32.0,32.0,32.0,32.0,32.0,32.0,32.0,33.0,33.0,33.0,33.0,33.0,33.0,33.0,33.0,33.0,33.0,33.0,33.0,33.0,33.0,34.0,34.0,34.0,34.0,34.0,34.0,34.0,34.0,34.0,34.0,34.0,34.0,34.0,34.0,34.0,34.0,34.0,34.0,34.0,34.0,34.0,34.0,34.0,34.0,34.0,34.0,34.0,34.0,34.0,34.0,34.0,34.0,34.0,34.0,34.0,34.0,34.0,34.0,35.0,35.0,35.0,35.0,35.0,35.0,35.0,35.0,35.0,35.0,35.0,35.0,35.0,35.0,35.0,36.0,36.0,36.0,36.0,36.0,36.0,36.0,36.0,36.0,36.0,36.0,36.0,36.0,35.0,35.0,35.0,35.0,35.0,35.0,35.0,35.0,35.0,35.0,35.0,35.0,35.0,35.0,35.0,35.0,35.0,35.0,35.0,35.0,35.0,34.0,34.0,34.0,34.0,34.0,34.0,33.0,33.0,33.0,33.0,33.0,33.0,33.0,33.0,33.0,33.0,33.0,33.0,33.0,33.0,33.0,33.0,33.0,32.0,32.0,32.0,33.0,33.0,33.0,33.0,34.0,33.0,33.0,33.0,33.0,33.0,34.0,34.0,34.0,34.0,34.0,34.0,34.0,34.0,34.0,34.0,34.0,34.0,34.0,34.0,34.0,34.0,34.0,35.0,35.0,35.0,35.0,35.0,35.0,35.0,35.0,35.0,35.0,35.0,35.0,35.0,35.0,35.0,35.0,35.0,34.0,34.0,34.0,34.0,34.0,34.0,34.0,34.0,34.0,34.0,34.0,33.0,33.0,33.0,33.0,33.0,33.0,33.0,33.0,33.0,33.0,33.0,33.0,32.0,32.0,32.0,32.0,32.0,32.0,32.0,32.0,32.0,32.0,32.0,32.0,32.0,32.0,32.0,32.0,32.0,32.0,32.0,32.0,32.0,32.0,32.0,32.0,32.0,32.0,32.0,32.0,32.0,31.0,31.0,32.0,32.0,32.0,32.0,32.0,32.0,32.0,32.0,32.0,32.0,32.0,32.0,32.0,32.0,32.0,32.0,32.0,32.0,32.0,33.0,33.0,33.0,33.0,33.0,33.0,33.0,33.0,33.0,33.0,33.0,0.0,0.0,0.0,0.0,0.0,0.0,0.0,0.0
0.0,0.0,0.0,0.0,0.0,0.0,0.0,0.0,0.0,0.0,0.0,52.0,52.0,51.0,51.0,51.0,52.0,51.0,51.0,51.0,51.0,51.0,51.0,52.0,51.0,51.0,51.0,52.0,52.0,52.0,52.0,53.0,52.0,53.0,53.0,53.0,52.0,52.0,53.0,52.0,0.0,0.0,0.0,0.0,0.0,0.0,32.0,32.0,32.0,32.0,32.0,32.0,32.0,32.0,32.0,32.0,32.0,32.0,32.0,32.0,33.0,33.0,33.0,33.0,33.0,33.0,33.0,33.0,33.0,33.0,33.0,34.0,33.0,34.0,33.0,34.0,34.0,33.0,34.0,34.0,34.0,34.0,34.0,34.0,34.0,34.0,34.0,34.0,34.0,34.0,34.0,34.0,34.0,34.0,34.0,34.0,34.0,34.0,34.0,34.0,34.0,34.0,34.0,34.0,34.0,34.0,34.0,34.0,34.0,34.0,35.0,35.0,35.0,35.0,35.0,35.0,35.0,35.0,35.0,35.0,35.0,35.0,35.0,35.0,36.0,36.0,36.0,36.0,36.0,36.0,36.0,36.0,36.0,36.0,36.0,36.0,35.0,35.0,35.0,35.0,35.0,35.0,35.0,35.0,35.0,35.0,35.0,35.0,35.0,35.0,35.0,35.0,35.0,35.0,35.0,35.0,35.0,34.0,34.0,34.0,34.0,34.0,34.0,34.0,33.0,33.0,33.0,33.0,33.0,33.0,33.0,33.0,33.0,33.0,33.0,33.0,33.0,33.0,33.0,33.0,33.0,32.0,32.0,32.0,32.0,33.0,33.0,33.0,33.0,33.0,33.0,33.0,33.0,33.0,33.0,33.0,33.0,34.0,34.0,34.0,34.0,34.0,34.0,34.0,34.0,34.0,34.0,34.0,34.0,35.0,34.0,35.0,35.0,35.0,35.0,35.0,35.0,35.0,35.0,35.0,35.0,35.0,35.0,35.0,35.0,35.0,35.0,34.0,34.0,34.0,34.0,34.0,34.0,34.0,34.0,34.0,34.0,34.0,34.0,33.0,33.0,33.0,33.0,33.0,33.0,33.0,33.0,33.0,33.0,33.0,33.0,32.0,32.0,32.0,32.0,32.0,32.0,32.0,32.0,32.0,32.0,32.0,32.0,32.0,32.0,32.0,32.0,32.0,32.0,32.0,32.0,32.0,32.0,32.0,32.0,32.0,32.0,32.0,32.0,32.0,32.0,32.0,32.0,32.0,32.0,32.0,32.0,32.0,32.0,32.0,32.0,32.0,32.0,32.0,32.0,32.0,32.0,32.0,32.0,32.0,32.0,33.0,33.0,33.0,33.0,33.0,33.0,33.0,33.0,33.0,33.0,33.0,0.0,0.0,0.0,0.0,0.0,0.0,0.0,0.0
0.0,0.0,0.0,0.0,0.0,0.0,0.0,0.0,0.0,0.0,0.0,53.0,52.0,52.0,51.0,51.0,51.0,51.0,51.0,51.0,51.0,51.0,51.0,52.0,51.0,52.0,52.0,51.0,51.0,51.0,52.0,53.0,52.0,53.0,53.0,53.0,53.0,52.0,52.0,52.0,0.0,0.0,0.0,0.0,0.0,0.0,32.0,32.0,32.0,32.0,32.0,32.0,32.0,32.0,32.0,32.0,32.0,32.0,32.0,32.0,32.0,32.0,33.0,33.0,33.0,33.0,33.0,33.0,33.0,33.0,33.0,33.0,33.0,33.0,33.0,33.0,33.0,33.0,33.0,34.0,34.0,34.0,34.0,34.0,34.0,34.0,34.0,34.0,34.0,34.0,34.0,34.0,34.0,34.0,34.0,34.0,34.0,34.0,34.0,34.0,34.0,34.0,34.0,34.0,34.0,34.0,34.0,34.0,34.0,34.0,35.0,35.0,35.0,35.0,35.0,35.0,35.0,35.0,35.0,35.0,35.0,35.0,35.0,35.0,36.0,36.0,36.0,36.0,36.0,36.0,36.0,36.0,36.0,36.0,36.0,36.0,35.0,35.0,36.0,35.0,35.0,35.0,35.0,35.0,35.0,35.0,35.0,35.0,35.0,35.0,35.0,35.0,35.0,35.0,35.0,35.0,35.0,34.0,34.0,34.0,34.0,34.0,34.0,34.0,33.0,33.0,33.0,33.0,33.0,33.0,33.0,33.0,33.0,33.0,33.0,33.0,33.0,33.0,33.0,33.0,33.0,32.0,32.0,32.0,33.0,33.0,32.0,34.0,34.0,33.0,33.0,33.0,33.0,33.0,34.0,34.0,33.0,34.0,34.0,34.0,34.0,34.0,34.0,34.0,34.0,34.0,34.0,34.0,35.0,35.0,35.0,35.0,35.0,35.0,35.0,35.0,35.0,35.0,35.0,35.0,35.0,35.0,35.0,35.0,35.0,34.0,34.0,34.0,34.0,34.0,34.0,34.0,34.0,34.0,34.0,34.0,34.0,34.0,34.0,33.0,33.0,33.0,33.0,33.0,33.0,33.0,33.0,33.0,33.0,32.0,32.0,32.0,32.0,32.0,32.0,32.0,32.0,32.0,32.0,32.0,32.0,32.0,32.0,32.0,32.0,32.0,32.0,32.0,32.0,32.0,32.0,32.0,32.0,32.0,32.0,32.0,32.0,32.0,32.0,32.0,32.0,32.0,32.0,32.0,32.0,32.0,32.0,32.0,32.0,32.0,32.0,32.0,32.0,32.0,32.0,32.0,32.0,32.0,33.0,33.0,33.0,33.0,33.0,33.0,33.0,33.0,33.0,33.0,33.0,33.0,33.0,0.0,0.0,0.0,0.0,0.0,0.0,0.0,0.0,0.0
0.0,0.0,0.0,0.0,0.0,0.0,0.0,0.0,0.0,0.0,0.0,53.0,53.0,52.0,51.0,51.0,51.0,51.0,50.0,50.0,51.0,51.0,51.0,52.0,52.0,52.0,52.0,51.0,51.0,52.0,52.0,53.0,52.0,53.0,53.0,53.0,53.0,52.0,52.0,52.0,0.0,0.0,0.0,0.0,0.0,32.0,32.0,32.0,32.0,32.0,32.0,32.0,32.0,32.0,32.0,32.0,32.0,32.0,32.0,32.0,32.0,32.0,33.0,33.0,33.0,33.0,33.0,33.0,33.0,33.0,33.0,33.0,33.0,33.0,33.0,33.0,33.0,33.0,33.0,34.0,34.0,34.0,34.0,34.0,34.0,34.0,34.0,34.0,34.0,34.0,34.0,34.0,34.0,34.0,34.0,34.0,34.0,34.0,34.0,34.0,34.0,34.0,34.0,34.0,34.0,34.0,34.0,34.0,34.0,34.0,34.0,34.0,35.0,35.0,35.0,35.0,35.0,35.0,35.0,35.0,35.0,35.0,35.0,35.0,35.0,36.0,36.0,36.0,36.0,36.0,36.0,36.0,36.0,36.0,36.0,36.0,35.0,35.0,36.0,35.0,35.0,35.0,35.0,35.0,35.0,35.0,35.0,35.0,35.0,35.0,35.0,35.0,35.0,35.0,35.0,35.0,34.0,34.0,34.0,34.0,34.0,34.0,34.0,33.0,33.0,33.0,33.0,33.0,33.0,33.0,33.0,33.0,33.0,33.0,33.0,33.0,33.0,33.0,33.0,33.0,33.0,33.0,33.0,33.0,33.0,32.0,32.0,34.0,34.0,34.0,34.0,33.0,34.0,34.0,34.0,34.0,34.0,34.0,34.0,34.0,34.0,34.0,34.0,34.0,34.0,35.0,35.0,35.0,35.0,34.0,35.0,35.0,35.0,35.0,35.0,35.0,35.0,35.0,35.0,35.0,35.0,35.0,35.0,35.0,35.0,35.0,34.0,34.0,34.0,34.0,34.0,34.0,34.0,34.0,34.0,34.0,34.0,34.0,34.0,33.0,33.0,33.0,33.0,33.0,33.0,33.0,33.0,33.0,33.0,32.0,32.0,32.0,32.0,32.0,32.0,32.0,32.0,32.0,32.0,32.0,32.0,32.0,32.0,32.0,32.0,32.0,32.0,32.0,32.0,32.0,32.0,32.0,32.0,32.0,32.0,32.0,32.0,32.0,32.0,32.0,32.0,32.0,32.0,32.0,32.0,32.0,32.0,32.0,32.0,32.0,32.0,32.0,32.0,32.0,32.0,32.0,32.0,32.0,33.0,33.0,33.0,33.0,33.0,33.0,33.0,33.0,33.0,33.0,33.0,33.0,33.0,0.0,0.0,0.0,0.0,0.0,0.0,0.0,0.0,0.0
0.0,0.0,0.0,0.0,0.0,0.0,0.0,0.0,0.0,0.0,0.0,0.0,0.0,53.0,51.0,51.0,51.0,51.0,50.0,51.0,51.0,51.0,52.0,52.0,52.0,52.0,52.0,51.0,51.0,52.0,52.0,53.0,53.0,53.0,53.0,53.0,53.0,52.0,52.0,0.0,0.0,0.0,0.0,0.0,0.0,32.0,32.0,32.0,32.0,32.0,32.0,32.0,32.0,32.0,32.0,32.0,32.0,32.0,32.0,32.0,32.0,33.0,33.0,33.0,33.0,33.0,33.0,33.0,33.0,33.0,33.0,33.0,33.0,33.0,33.0,33.0,33.0,33.0,33.0,34.0,34.0,34.0,34.0,34.0,34.0,34.0,34.0,34.0,34.0,34.0,34.0,34.0,34.0,34.0,34.0,34.0,34.0,34.0,34.0,34.0,34.0,34.0,34.0,34.0,34.0,34.0,34.0,34.0,34.0,34.0,34.0,34.0,35.0,35.0,35.0,35.0,35.0,35.0,35.0,35.0,35.0,36.0,36.0,36.0,36.0,36.0,36.0,36.0,36.0,36.0,36.0,36.0,36.0,36.0,36.0,36.0,35.0,35.0,36.0,35.0,35.0,35.0,35.0,35.0,35.0,35.0,35.0,35.0,35.0,35.0,35.0,35.0,35.0,35.0,35.0,35.0,34.0,34.0,34.0,34.0,34.0,34.0,34.0,33.0,33.0,33.0,33.0,33.0,33.0,33.0,33.0,33.0,33.0,33.0,33.0,33.0,33.0,33.0,33.0,33.0,33.0,33.0,33.0,33.0,33.0,33.0,32.0,34.0,34.0,34.0,34.0,34.0,34.0,34.0,34.0,34.0,34.0,34.0,34.0,34.0,34.0,34.0,34.0,35.0,35.0,35.0,35.0,35.0,35.0,35.0,35.0,35.0,35.0,35.0,35.0,35.0,35.0,35.0,35.0,35.0,35.0,35.0,35.0,35.0,35.0,35.0,34.0,34.0,34.0,34.0,34.0,34.0,34.0,34.0,34.0,34.0,34.0,34.0,34.0,33.0,33.0,33.0,33.0,33.0,33.0,33.0,33.0,33.0,33.0,32.0,32.0,32.0,32.0,32.0,32.0,32.0,32.0,32.0,32.0,32.0,32.0,32.0,32.0,32.0,32.0,32.0,32.0,32.0,32.0,32.0,32.0,32.0,32.0,32.0,32.0,32.0,32.0,32.0,32.0,32.0,32.0,32.0,32.0,32.0,32.0,32.0,32.0,32.0,32.0,32.0,32.0,32.0,32.0,32.0,32.0,32.0,32.0,33.0,33.0,33.0,33.0,33.0,33.0,33.0,33.0,33.0,33.0,33.0,33.0,33.0,33.0,0.0,0.0,0.0,0.0,0.0,0.0,0.0,0.0,0.0
0.0,0.0,0.0,0.0,0.0,0.0,0.0,0.0,0.0,0.0,0.0,0.0,0.0,53.0,52.0,51.0,51.0,51.0,51.0,51.0,51.0,51.0,51.0,52.0,51.0,52.0,52.0,52.0,51.0,51.0,52.0,53.0,53.0,53.0,53.0,53.0,53.0,52.0,52.0,0.0,0.0,0.0,0.0,0.0,0.0,32.0,32.0,32.0,32.0,32.0,32.0,32.0,32.0,32.0,32.0,32.0,32.0,32.0,32.0,32.0,33.0,33.0,33.0,33.0,33.0,33.0,33.0,33.0,33.0,33.0,33.0,33.0,33.0,33.0,33.0,33.0,33.0,33.0,33.0,34.0,34.0,34.0,34.0,34.0,34.0,34.0,34.0,34.0,34.0,34.0,34.0,34.0,34.0,34.0,34.0,34.0,34.0,34.0,34.0,34.0,34.0,34.0,34.0,34.0,34.0,34.0,34.0,34.0,34.0,34.0,34.0,35.0,35.0,35.0,35.0,35.0,35.0,35.0,35.0,35.0,35.0,36.0,36.0,36.0,36.0,36.0,36.0,36.0,36.0,36.0,36.0,36.0,36.0,36.0,36.0,36.0,35.0,35.0,36.0,35.0,35.0,35.0,35.0,35.0,35.0,35.0,35.0,35.0,35.0,35.0,35.0,35.0,35.0,35.0,35.0,35.0,34.0,34.0,34.0,34.0,34.0,34.0,34.0,33.0,33.0,33.0,33.0,33.0,33.0,33.0,33.0,33.0,33.0,33.0,33.0,33.0,33.0,33.0,33.0,33.0,33.0,33.0,33.0,34.0,33.0,34.0,34.0,34.0,34.0,34.0,34.0,34.0,34.0,34.0,34.0,34.0,34.0,34.0,34.0,34.0,34.0,34.0,34.0,35.0,35.0,35.0,35.0,35.0,35.0,35.0,35.0,35.0,35.0,35.0,35.0,35.0,35.0,35.0,35.0,35.0,35.0,35.0,35.0,35.0,35.0,35.0,34.0,34.0,34.0,34.0,34.0,34.0,34.0,34.0,34.0,34.0,34.0,34.0,34.0,34.0,33.0,33.0,33.0,33.0,33.0,33.0,33.0,33.0,33.0,32.0,32.0,32.0,32.0,32.0,32.0,32.0,32.0,32.0,32.0,32.0,32.0,32.0,32.0,32.0,32.0,32.0,32.0,32.0,32.0,32.0,32.0,32.0,32.0,32.0,32.0,32.0,32.0,32.0,32.0,32.0,32.0,32.0,32.0,32.0,32.0,32.0,32.0,32.0,32.0,32.0,32.0,32.0,32.0,32.0,32.0,32.0,33.0,33.0,33.0,33.0,33.0,33.0,33.0,33.0,33.0,33.0,33.0,33.0,33.0,33.0,33.0,0.0,0.0,0.0,0.0,0.0,0.0,0.0,0.0,0.0
0.0,0.0,0.0,0.0,0.0,0.0,0.0,0.0,0.0,0.0,54.0,54.0,53.0,53.0,52.0,52.0,52.0,51.0,51.0,51.0,51.0,51.0,51.0,52.0,52.0,52.0,52.0,52.0,51.0,51.0,52.0,52.0,52.0,53.0,53.0,53.0,52.0,52.0,52.0,0.0,0.0,0.0,0.0,0.0,32.0,32.0,32.0,32.0,32.0,32.0,32.0,32.0,32.0,32.0,32.0,32.0,32.0,32.0,32.0,32.0,33.0,33.0,33.0,33.0,33.0,33.0,33.0,33.0,33.0,33.0,33.0,33.0,33.0,33.0,33.0,33.0,33.0,33.0,33.0,34.0,34.0,34.0,34.0,34.0,34.0,34.0,34.0,34.0,34.0,34.0,34.0,34.0,34.0,34.0,34.0,34.0,34.0,34.0,34.0,34.0,34.0,34.0,34.0,34.0,34.0,34.0,34.0,34.0,34.0,34.0,34.0,34.0,35.0,35.0,35.0,35.0,35.0,35.0,35.0,35.0,35.0,36.0,36.0,36.0,36.0,36.0,36.0,36.0,36.0,36.0,36.0,36.0,36.0,36.0,36.0,36.0,35.0,35.0,35.0,35.0,35.0,35.0,35.0,35.0,35.0,35.0,35.0,35.0,35.0,35.0,35.0,35.0,35.0,35.0,35.0,35.0,34.0,34.0,34.0,34.0,34.0,34.0,34.0,34.0,33.0,33.0,33.0,33.0,33.0,33.0,33.0,33.0,33.0,33.0,33.0,33.0,33.0,33.0,33.0,34.0,34.0,33.0,34.0,34.0,34.0,34.0,34.0,34.0,34.0,34.0,34.0,34.0,34.0,34.0,34.0,34.0,34.0,34.0,34.0,34.0,35.0,35.0,35.0,35.0,35.0,35.0,35.0,35.0,35.0,35.0,35.0,35.0,35.0,35.0,35.0,35.0,35.0,35.0,35.0,35.0,35.0,35.0,35.0,35.0,35.0,35.0,34.0,34.0,34.0,34.0,34.0,34.0,34.0,34.0,34.0,34.0,34.0,34.0,33.0,33.0,33.0,33.0,33.0,33.0,33.0,33.0,33.0,33.0,32.0,32.0,32.0,32.0,32.0,32.0,32.0,32.0,32.0,32.0,32.0,32.0,32.0,32.0,32.0,32.0,32.0,32.0,32.0,32.0,32.0,32.0,32.0,32.0,32.0,32.0,32.0,32.0,32.0,32.0,32.0,32.0,32.0,32.0,32.0,32.0,32.0,32.0,32.0,32.0,32.0,32.0,32.0,32.0,32.0,32.0,32.0,33.0,33.0,33.0,33.0,33.0,33.0,33.0,33.0,33.0,33.0,33.0,33.0,33.0,33.0,33.0,33.0,0.0,0.0,0.0,0.0,0.0,0.0,0.0,0.0,0.0
0.0,0.0,0.0,0.0,0.0,0.0,0.0,0.0,0.0,0.0,54.0,54.0,53.0,53.0,52.0,52.0,52.0,52.0,51.0,51.0,51.0,51.0,51.0,52.0,52.0,52.0,52.0,51.0,51.0,51.0,52.0,52.0,53.0,53.0,53.0,53.0,52.0,52.0,52.0,0.0,0.0,0.0,0.0,0.0,0.0,32.0,32.0,32.0,32.0,32.0,32.0,32.0,32.0,32.0,32.0,32.0,32.0,32.0,33.0,33.0,33.0,33.0,33.0,33.0,33.0,33.0,33.0,33.0,33.0,33.0,33.0,33.0,33.0,33.0,33.0,33.0,33.0,33.0,33.0,34.0,34.0,34.0,34.0,34.0,34.0,34.0,34.0,34.0,34.0,34.0,34.0,34.0,34.0,34.0,34.0,34.0,34.0,34.0,34.0,34.0,34.0,34.0,34.0,34.0,34.0,34.0,34.0,34.0,34.0,34.0,34.0,34.0,35.0,35.0,35.0,35.0,35.0,35.0,35.0,35.0,35.0,36.0,35.0,36.0,36.0,36.0,36.0,36.0,36.0,36.0,36.0,36.0,36.0,36.0,36.0,35.0,35.0,35.0,35.0,35.0,35.0,35.0,35.0,35.0,35.0,35.0,35.0,35.0,35.0,35.0,35.0,35.0,35.0,35.0,35.0,35.0,34.0,34.0,34.0,34.0,34.0,34.0,34.0,34.0,34.0,33.0,33.0,33.0,33.0,33.0,33.0,33.0,33.0,33.0,33.0,33.0,33.0,33.0,34.0,34.0,34.0,34.0,34.0,34.0,34.0,34.0,34.0,34.0,34.0,34.0,34.0,34.0,34.0,34.0,34.0,34.0,34.0,35.0,35.0,35.0,35.0,35.0,35.0,35.0,35.0,35.0,35.0,35.0,35.0,35.0,35.0,35.0,35.0,35.0,35.0,35.0,35.0,35.0,35.0,35.0,35.0,35.0,35.0,35.0,35.0,35.0,34.0,34.0,34.0,34.0,34.0,34.0,34.0,34.0,34.0,34.0,34.0,34.0,33.0,33.0,33.0,33.0,33.0,33.0,33.0,33.0,33.0,33.0,32.0,32.0,32.0,32.0,32.0,32.0,32.0,32.0,32.0,32.0,32.0,32.0,32.0,32.0,32.0,32.0,32.0,32.0,32.0,32.0,32.0,32.0,32.0,32.0,32.0,32.0,32.0,32.0,32.0,32.0,32.0,32.0,32.0,32.0,32.0,32.0,32.0,32.0,32.0,32.0,32.0,32.0,32.0,32.0,32.0,32.0,32.0,33.0,33.0,33.0,33.0,33.0,33.0,33.0,33.0,33.0,33.0,33.0,33.0,33.0,33.0,33.0,33.0,0.0,0.0,0.0,0.0,0.0,0.0,0.0,0.0,0.0
0.0,0.0,0.0,0.0,0.0,0.0,0.0,0.0,0.0,0.0,0.0,54.0,54.0,53.0,53.0,52.0,52.0,52.0,51.0,51.0,51.0,51.0,51.0,52.0,52.0,52.0,52.0,51.0,52.0,51.0,52.0,52.0,53.0,53.0,53.0,53.0,52.0,52.0,52.0,0.0,0.0,0.0,0.0,0.0,0.0,32.0,32.0,32.0,32.0,32.0,32.0,32.0,32.0,32.0,32.0,32.0,32.0,32.0,33.0,33.0,33.0,33.0,33.0,33.0,33.0,33.0,33.0,33.0,33.0,33.0,33.0,33.0,33.0,33.0,33.0,33.0,33.0,33.0,33.0,34.0,34.0,34.0,34.0,34.0,34.0,34.0,34.0,34.0,34.0,34.0,34.0,34.0,34.0,34.0,34.0,34.0,34.0,34.0,34.0,34.0,34.0,34.0,34.0,34.0,34.0,34.0,34.0,34.0,34.0,34.0,34.0,34.0,35.0,35.0,35.0,35.0,35.0,35.0,35.0,35.0,35.0,35.0,35.0,36.0,36.0,36.0,36.0,36.0,36.0,36.0,36.0,36.0,36.0,35.0,35.0,35.0,35.0,35.0,35.0,35.0,35.0,35.0,35.0,35.0,35.0,35.0,35.0,35.0,35.0,35.0,35.0,35.0,35.0,35.0,35.0,35.0,34.0,34.0,34.0,34.0,34.0,34.0,34.0,34.0,34.0,33.0,33.0,33.0,33.0,33.0,33.0,33.0,33.0,33.0,33.0,33.0,33.0,33.0,34.0,34.0,34.0,34.0,34.0,34.0,34.0,34.0,34.0,34.0,34.0,34.0,34.0,34.0,34.0,35.0,34.0,34.0,34.0,35.0,35.0,35.0,35.0,35.0,35.0,35.0,35.0,35.0,35.0,35.0,35.0,35.0,35.0,35.0,35.0,35.0,35.0,35.0,35.0,35.0,35.0,35.0,35.0,35.0,35.0,35.0,35.0,35.0,34.0,34.0,34.0,34.0,34.0,34.0,34.0,34.0,34.0,34.0,34.0,34.0,33.0,33.0,33.0,33.0,33.0,33.0,33.0,33.0,33.0,32.0,32.0,32.0,32.0,32.0,32.0,32.0,32.0,32.0,32.0,32.0,32.0,32.0,32.0,32.0,32.0,32.0,32.0,32.0,32.0,32.0,32.0,32.0,32.0,32.0,32.0,32.0,32.0,32.0,32.0,32.0,32.0,32.0,32.0,32.0,32.0,32.0,32.0,32.0,32.0,32.0,32.0,32.0,32.0,32.0,32.0,32.0,33.0,33.0,33.0,33.0,33.0,33.0,33.0,33.0,33.0,33.0,33.0,33.0,33.0,33.0,33.0,33.0,33.0,33.0,0.0,0.0,0.0,0.0,0.0,0.0,0.0,0.0
0.0,0.0,0.0,0.0,0.0,0.0,0.0,0.0,0.0,0.0,54.0,54.0,53.0,53.0,52.0,52.0,52.0,52.0,51.0,51.0,52.0,51.0,52.0,52.0,52.0,52.0,52.0,51.0,52.0,52.0,52.0,52.0,52.0,53.0,52.0,53.0,52.0,52.0,52.0,0.0,0.0,0.0,0.0,0.0,0.0,0.0,32.0,32.0,32.0,32.0,32.0,32.0,32.0,32.0,32.0,32.0,32.0,32.0,33.0,33.0,33.0,33.0,33.0,33.0,33.0,33.0,33.0,33.0,33.0,33.0,33.0,33.0,33.0,33.0,33.0,33.0,33.0,33.0,33.0,34.0,34.0,34.0,34.0,34.0,34.0,34.0,34.0,34.0,34.0,34.0,34.0,34.0,34.0,34.0,34.0,34.0,34.0,34.0,34.0,34.0,34.0,34.0,34.0,34.0,34.0,34.0,34.0,34.0,34.0,34.0,35.0,35.0,35.0,35.0,35.0,35.0,35.0,35.0,35.0,35.0,35.0,36.0,36.0,36.0,36.0,36.0,36.0,36.0,36.0,36.0,36.0,36.0,36.0,35.0,35.0,35.0,35.0,35.0,35.0,35.0,35.0,35.0,35.0,35.0,35.0,35.0,35.0,35.0,35.0,35.0,35.0,35.0,35.0,35.0,35.0,35.0,34.0,34.0,34.0,34.0,34.0,34.0,34.0,34.0,34.0,33.0,34.0,33.0,33.0,33.0,33.0,33.0,33.0,33.0,33.0,33.0,33.0,33.0,34.0,34.0,34.0,34.0,34.0,34.0,34.0,34.0,34.0,34.0,34.0,34.0,34.0,34.0,34.0,34.0,35.0,34.0,35.0,35.0,35.0,35.0,35.0,35.0,35.0,35.0,35.0,35.0,35.0,35.0,35.0,35.0,35.0,35.0,35.0,35.0,35.0,35.0,35.0,35.0,35.0,35.0,35.0,35.0,35.0,35.0,35.0,35.0,34.0,34.0,34.0,34.0,34.0,34.0,34.0,34.0,34.0,34.0,34.0,33.0,33.0,33.0,33.0,33.0,33.0,33.0,33.0,33.0,33.0,32.0,32.0,32.0,32.0,32.0,32.0,32.0,32.0,32.0,32.0,32.0,32.0,32.0,32.0,32.0,32.0,32.0,32.0,32.0,32.0,32.0,32.0,32.0,32.0,32.0,32.0,32.0,32.0,32.0,32.0,32.0,32.0,32.0,32.0,32.0,32.0,32.0,32.0,32.0,32.0,32.0,32.0,32.0,32.0,32.0,32.0,32.0,32.0,32.0,32.0,32.0,32.0,33.0,33.0,33.0,33.0,33.0,33.0,33.0,33.0,33.0,33.0,33.0,33.0,33.0,0.0,0.0,0.0,0.0,0.0,0.0,0.0,0.0
0.0,0.0,0.0,0.0,0.0,0.0,0.0,0.0,0.0,0.0,53.0,54.0,53.0,52.0,52.0,52.0,52.0,52.0,52.0,52.0,52.0,52.0,52.0,52.0,52.0,52.0,52.0,51.0,52.0,52.0,52.0,52.0,52.0,53.0,53.0,53.0,53.0,52.0,52.0,0.0,0.0,0.0,0.0,0.0,0.0,32.0,32.0,32.0,32.0,32.0,32.0,32.0,32.0,32.0,32.0,32.0,32.0,33.0,33.0,33.0,33.0,33.0,33.0,33.0,33.0,33.0,33.0,33.0,33.0,33.0,33.0,33.0,33.0,33.0,33.0,33.0,33.0,33.0,33.0,33.0,34.0,34.0,34.0,33.0,34.0,34.0,34.0,34.0,34.0,34.0,34.0,34.0,34.0,34.0,34.0,34.0,34.0,34.0,34.0,34.0,34.0,34.0,34.0,34.0,34.0,34.0,34.0,34.0,34.0,34.0,35.0,35.0,35.0,35.0,35.0,35.0,35.0,35.0,35.0,35.0,35.0,36.0,36.0,36.0,36.0,36.0,36.0,36.0,36.0,36.0,36.0,35.0,36.0,35.0,35.0,35.0,35.0,35.0,35.0,35.0,35.0,35.0,35.0,36.0,36.0,35.0,35.0,35.0,35.0,35.0,35.0,35.0,35.0,35.0,35.0,35.0,35.0,34.0,34.0,34.0,34.0,34.0,34.0,34.0,34.0,34.0,34.0,33.0,33.0,33.0,33.0,33.0,33.0,33.0,33.0,33.0,33.0,33.0,34.0,34.0,34.0,34.0,34.0,34.0,34.0,34.0,34.0,34.0,34.0,34.0,34.0,35.0,35.0,35.0,35.0,35.0,35.0,35.0,35.0,35.0,35.0,35.0,35.0,35.0,35.0,35.0,35.0,35.0,35.0,35.0,35.0,35.0,35.0,35.0,35.0,34.0,35.0,35.0,35.0,35.0,35.0,35.0,35.0,35.0,35.0,34.0,34.0,34.0,34.0,34.0,34.0,34.0,34.0,34.0,34.0,34.0,33.0,33.0,33.0,33.0,33.0,33.0,33.0,33.0,33.0,33.0,33.0,32.0,32.0,32.0,32.0,32.0,32.0,32.0,31.0,32.0,31.0,31.0,31.0,31.0,31.0,32.0,32.0,32.0,32.0,32.0,32.0,32.0,32.0,32.0,32.0,32.0,32.0,32.0,32.0,32.0,32.0,32.0,32.0,32.0,32.0,32.0,32.0,32.0,32.0,32.0,32.0,32.0,32.0,32.0,32.0,32.0,32.0,32.0,32.0,32.0,32.0,32.0,32.0,32.0,33.0,33.0,33.0,33.0,33.0,33.0,33.0,33.0,33.0,33.0,33.0,33.0,0.0,0.0,0.0,0.0,0.0,0.0,0.0,0.0
0.0,0.0,0.0,0.0,0.0,0.0,0.0,0.0,0.0,0.0,0.0,53.0,53.0,52.0,52.0,52.0,52.0,52.0,52.0,52.0,52.0,52.0,52.0,52.0,52.0,52.0,52.0,52.0,52.0,52.0,52.0,52.0,52.0,52.0,53.0,52.0,53.0,52.0,52.0,52.0,0.0,0.0,0.0,0.0,0.0,32.0,32.0,32.0,32.0,32.0,32.0,32.0,32.0,32.0,32.0,32.0,32.0,33.0,33.0,33.0,33.0,33.0,33.0,33.0,33.0,33.0,33.0,33.0,33.0,33.0,33.0,33.0,33.0,33.0,33.0,33.0,33.0,33.0,33.0,33.0,34.0,34.0,34.0,34.0,34.0,34.0,34.0,34.0,34.0,34.0,34.0,34.0,34.0,34.0,34.0,34.0,34.0,34.0,34.0,34.0,34.0,34.0,34.0,34.0,34.0,34.0,34.0,34.0,35.0,35.0,35.0,35.0,35.0,35.0,35.0,35.0,35.0,35.0,35.0,35.0,35.0,35.0,36.0,36.0,36.0,36.0,36.0,36.0,36.0,36.0,36.0,36.0,36.0,36.0,36.0,35.0,35.0,35.0,35.0,35.0,35.0,35.0,35.0,36.0,36.0,35.0,35.0,35.0,35.0,35.0,35.0,35.0,35.0,35.0,35.0,35.0,35.0,34.0,34.0,34.0,34.0,34.0,34.0,34.0,34.0,34.0,34.0,33.0,33.0,33.0,33.0,33.0,34.0,34.0,33.0,33.0,34.0,34.0,34.0,34.0,34.0,34.0,34.0,34.0,34.0,34.0,34.0,34.0,34.0,34.0,34.0,35.0,35.0,35.0,35.0,35.0,35.0,35.0,35.0,35.0,35.0,35.0,35.0,35.0,35.0,35.0,35.0,35.0,35.0,34.0,34.0,34.0,34.0,34.0,34.0,34.0,34.0,34.0,34.0,35.0,35.0,35.0,35.0,35.0,34.0,34.0,34.0,34.0,34.0,34.0,34.0,34.0,34.0,34.0,33.0,33.0,33.0,33.0,33.0,33.0,33.0,33.0,33.0,32.0,32.0,32.0,32.0,32.0,32.0,32.0,32.0,32.0,32.0,32.0,31.0,31.0,31.0,31.0,31.0,31.0,31.0,32.0,32.0,32.0,32.0,32.0,32.0,32.0,32.0,32.0,32.0,32.0,32.0,32.0,32.0,32.0,32.0,32.0,32.0,32.0,32.0,32.0,32.0,32.0,32.0,32.0,32.0,32.0,32.0,32.0,32.0,32.0,32.0,32.0,32.0,32.0,32.0,32.0,32.0,32.0,33.0,33.0,33.0,33.0,33.0,33.0,33.0,33.0,33.0,33.0,33.0,33.0,0.0,0.0,0.0,0.0,0.0,0.0,0.0,0.0
