55.0,55.0,54.0,54.0,54.0,54.0,54.0,54.0,55.0,55.0,55.0,56.0,55.0,55.0,57.0,58.0,59.0,58.0,59.0,58.0,58.0,59.0,60.0,60.0,63.0,63.0,63.0,63.0,63.0,63.0,63.0,66.0,68.0,69.0,69.0,69.0,70.0,71.0,72.0,73.0,73.0,74.0,75.0,75.0,76.0,76.0,77.0,77.0,78.0,80.0,80.0,82.0,83.0,83.0,84.0,84.0,84.0,86.0,86.0,88.0,90.0,90.0,91.0,91.0,92.0,92.0,94.0,95.0,95.0,101.0,101.0,101.0,0.0,0.0,0.0,0.0,0.0,0.0,52.0,52.0,53.0,52.0,52.0,51.0,51.0,51.0,51.0,51.0,51.0,52.0,53.0,52.0,53.0,53.0,53.0,53.0,53.0,53.0,54.0,54.0,54.0,54.0,54.0,55.0,55.0,55.0,55.0,55.0,54.0,54.0,54.0,55.0,54.0,54.0,53.0,53.0,54.0,53.0,53.0,53.0,53.0,52.0,52.0,52.0,52.0,52.0,52.0,51.0,52.0,51.0,51.0,51.0,51.0,51.0,51.0,51.0,51.0,50.0,50.0,49.0,49.0,49.0,49.0,49.0,48.0,48.0,48.0,48.0,48.0,47.0,47.0,46.0,46.0,46.0,46.0,46.0,46.0,46.0,46.0,47.0,48.0,48.0,48.0,49.0,49.0,49.0,49.0,49.0,49.0,49.0,50.0,50.0,50.0,50.0,51.0,51.0,50.0,50.0,50.0,50.0,50.0,50.0,50.0,50.0,50.0,50.0,50.0,50.0,50.0,50.0,50.0,50.0,50.0,50.0,50.0,51.0,51.0,51.0,51.0,51.0,51.0,52.0,52.0,53.0,53.0,53.0,54.0,54.0,54.0,54.0,54.0,54.0,54.0,54.0,54.0,54.0,54.0,54.0,54.0,54.0,55.0,55.0,55.0,55.0,54.0,55.0,55.0,55.0,55.0,55.0,55.0,55.0,55.0,55.0,55.0,56.0,56.0,56.0,56.0,56.0,55.0,55.0,55.0,55.0,55.0,55.0,54.0,54.0,54.0,54.0,54.0,53.0,54.0,53.0,54.0,53.0,53.0,53.0,53.0,54.0,54.0,54.0,195.0,191.0,191.0,191.0,187.0,187.0,187.0,188.0,184.0,184.0,184.0,181.0,181.0,182.0,178.0,179.0,176.0,176.0,177.0,178.0,175.0,175.0,176.0,176.0,177.0,177.0,178.0,179.0,179.0,180.0,181.0,181.0,181.0,182.0,182.0,182.0,183.0,183.0,183.0,179.0,179.0,176.0,176.0,176.0,176.0,176.0,177.0,177.0,177.0,177.0,0.0,0.0,0.0,0.0,0.0,0.0,0.0,0.0
55.0,55.0,54.0,54.0,54.0,54.0,54.0,54.0,54.0,55.0,55.0,56.0,55.0,55.0,56.0,58.0,59.0,58.0,59.0,58.0,59.0,60.0,60.0,60.0,62.0,63.0,63.0,63.0,63.0,63.0,65.0,66.0,67.0,68.0,69.0,70.0,70.0,71.0,72.0,72.0,73.0,73.0,74.0,75.0,75.0,76.0,77.0,77.0,78.0,79.0,80.0,81.0,82.0,83.0,84.0,84.0,84.0,86.0,86.0,88.0,90.0,90.0,91.0,91.0,92.0,92.0,97.0,95.0,96.0,99.0,99.0,99.0,0.0,0.0,0.0,0.0,0.0,0.0,52.0,53.0,53.0,52.0,52.0,51.0,51.0,51.0,51.0,51.0,51.0,52.0,52.0,53.0,53.0,53.0,53.0,53.0,53.0,53.0,53.0,54.0,54.0,54.0,54.0,55.0,55.0,55.0,55.0,54.0,54.0,54.0,54.0,54.0,54.0,54.0,53.0,53.0,53.0,53.0,53.0,53.0,52.0,52.0,52.0,52.0,52.0,52.0,52.0,52.0,52.0,51.0,51.0,51.0,51.0,50.0,51.0,51.0,50.0,50.0,49.0,49.0,49.0,49.0,49.0,49.0,48.0,48.0,48.0,47.0,47.0,46.0,46.0,46.0,46.0,46.0,46.0,46.0,46.0,46.0,46.0,47.0,48.0,48.0,48.0,49.0,49.0,49.0,49.0,49.0,49.0,49.0,50.0,50.0,50.0,50.0,51.0,50.0,50.0,50.0,50.0,50.0,50.0,50.0,50.0,50.0,50.0,50.0,50.0,50.0,50.0,50.0,50.0,50.0,50.0,50.0,50.0,50.0,51.0,51.0,51.0,51.0,51.0,52.0,53.0,53.0,53.0,53.0,54.0,54.0,54.0,54.0,54.0,54.0,54.0,54.0,54.0,54.0,54.0,54.0,54.0,54.0,55.0,55.0,55.0,55.0,55.0,55.0,55.0,55.0,56.0,55.0,55.0,56.0,55.0,56.0,56.0,56.0,56.0,56.0,56.0,56.0,56.0,56.0,55.0,55.0,55.0,55.0,54.0,54.0,54.0,54.0,54.0,54.0,54.0,54.0,54.0,54.0,54.0,53.0,54.0,54.0,54.0,54.0,195.0,190.0,191.0,191.0,187.0,187.0,187.0,188.0,184.0,184.0,184.0,185.0,181.0,182.0,179.0,179.0,176.0,177.0,177.0,178.0,175.0,175.0,176.0,176.0,177.0,178.0,178.0,179.0,180.0,180.0,181.0,181.0,181.0,182.0,182.0,183.0,183.0,183.0,183.0,179.0,180.0,180.0,176.0,176.0,176.0,177.0,177.0,177.0,177.0,178.0,0.0,0.0,0.0,0.0,0.0,0.0,0.0,0.0
55.0,55.0,54.0,54.0,54.0,54.0,54.0,54.0,54.0,55.0,55.0,56.0,55.0,55.0,56.0,58.0,59.0,59.0,59.0,59.0,61.0,60.0,61.0,61.0,62.0,63.0,63.0,63.0,63.0,63.0,65.0,66.0,68.0,69.0,69.0,70.0,70.0,71.0,72.0,72.0,73.0,73.0,75.0,75.0,76.0,76.0,77.0,77.0,79.0,79.0,80.0,81.0,82.0,83.0,84.0,84.0,86.0,86.0,86.0,89.0,90.0,91.0,91.0,91.0,95.0,95.0,96.0,96.0,99.0,101.0,99.0,101.0,0.0,0.0,0.0,0.0,0.0,0.0,0.0,53.0,53.0,52.0,52.0,52.0,52.0,52.0,51.0,51.0,51.0,52.0,52.0,53.0,53.0,53.0,52.0,53.0,53.0,53.0,53.0,53.0,54.0,54.0,54.0,55.0,55.0,55.0,55.0,55.0,54.0,55.0,55.0,54.0,54.0,53.0,53.0,53.0,53.0,53.0,53.0,52.0,52.0,52.0,52.0,51.0,52.0,52.0,52.0,52.0,52.0,51.0,51.0,51.0,51.0,50.0,50.0,51.0,50.0,50.0,49.0,49.0,49.0,48.0,48.0,48.0,48.0,48.0,48.0,47.0,47.0,46.0,46.0,46.0,46.0,46.0,46.0,46.0,46.0,47.0,47.0,47.0,48.0,48.0,49.0,49.0,49.0,49.0,49.0,49.0,49.0,49.0,50.0,50.0,50.0,50.0,51.0,50.0,50.0,50.0,50.0,50.0,50.0,50.0,50.0,50.0,50.0,50.0,50.0,50.0,50.0,50.0,50.0,50.0,50.0,51.0,51.0,51.0,51.0,51.0,51.0,51.0,52.0,52.0,52.0,52.0,52.0,53.0,53.0,53.0,54.0,54.0,54.0,54.0,54.0,54.0,54.0,54.0,54.0,54.0,54.0,54.0,55.0,55.0,55.0,55.0,55.0,55.0,55.0,56.0,56.0,55.0,55.0,55.0,55.0,55.0,56.0,55.0,56.0,56.0,56.0,56.0,56.0,56.0,55.0,55.0,55.0,55.0,55.0,54.0,54.0,54.0,54.0,54.0,54.0,54.0,54.0,54.0,54.0,54.0,54.0,54.0,195.0,195.0,190.0,190.0,191.0,186.0,187.0,187.0,187.0,188.0,184.0,184.0,185.0,185.0,182.0,182.0,183.0,180.0,180.0,177.0,178.0,178.0,175.0,175.0,176.0,177.0,177.0,178.0,178.0,179.0,179.0,180.0,181.0,181.0,182.0,182.0,182.0,183.0,179.0,179.0,179.0,180.0,176.0,176.0,176.0,173.0,177.0,173.0,173.0,174.0,177.0,178.0,0.0,0.0,0.0,0.0,0.0,0.0,0.0,0.0
55.0,55.0,54.0,54.0,54.0,54.0,54.0,53.0,54.0,55.0,55.0,56.0,55.0,55.0,56.0,58.0,59.0,59.0,60.0,60.0,61.0,60.0,61.0,61.0,62.0,62.0,63.0,63.0,64.0,65.0,66.0,65.0,67.0,68.0,69.0,70.0,70.0,71.0,73.0,74.0,73.0,74.0,76.0,75.0,76.0,76.0,77.0,77.0,79.0,80.0,80.0,81.0,82.0,83.0,85.0,85.0,85.0,86.0,86.0,87.0,90.0,90.0,91.0,91.0,93.0,94.0,95.0,95.0,99.0,101.0,101.0,102.0,102.0,0.0,0.0,0.0,0.0,0.0,0.0,53.0,53.0,52.0,52.0,52.0,52.0,51.0,51.0,52.0,51.0,52.0,52.0,53.0,53.0,52.0,52.0,53.0,53.0,53.0,53.0,53.0,53.0,54.0,54.0,54.0,55.0,55.0,55.0,55.0,54.0,54.0,55.0,54.0,54.0,53.0,53.0,53.0,53.0,53.0,53.0,53.0,52.0,52.0,52.0,51.0,52.0,52.0,52.0,51.0,52.0,51.0,51.0,51.0,51.0,50.0,50.0,50.0,50.0,50.0,49.0,49.0,49.0,48.0,48.0,48.0,48.0,48.0,48.0,47.0,47.0,47.0,46.0,46.0,46.0,46.0,46.0,46.0,46.0,46.0,47.0,47.0,48.0,48.0,49.0,49.0,48.0,49.0,49.0,49.0,49.0,49.0,50.0,50.0,50.0,50.0,50.0,50.0,50.0,50.0,50.0,50.0,50.0,50.0,50.0,50.0,50.0,50.0,50.0,50.0,50.0,50.0,50.0,50.0,51.0,51.0,51.0,51.0,51.0,51.0,51.0,51.0,52.0,52.0,52.0,52.0,53.0,53.0,53.0,53.0,53.0,54.0,54.0,54.0,54.0,55.0,55.0,54.0,54.0,54.0,54.0,54.0,55.0,55.0,55.0,55.0,55.0,56.0,55.0,56.0,56.0,56.0,56.0,56.0,55.0,55.0,56.0,55.0,55.0,56.0,56.0,56.0,56.0,56.0,55.0,55.0,55.0,55.0,55.0,55.0,55.0,54.0,54.0,54.0,54.0,54.0,54.0,54.0,54.0,54.0,54.0,54.0,190.0,190.0,190.0,190.0,186.0,186.0,187.0,187.0,187.0,188.0,189.0,184.0,185.0,186.0,186.0,187.0,183.0,184.0,181.0,177.0,178.0,178.0,175.0,175.0,176.0,177.0,177.0,178.0,179.0,179.0,180.0,180.0,181.0,181.0,182.0,182.0,182.0,183.0,179.0,183.0,180.0,180.0,176.0,177.0,173.0,173.0,173.0,173.0,174.0,174.0,178.0,178.0,0.0,0.0,0.0,0.0,0.0,0.0,0.0,0.0
55.0,55.0,54.0,54.0,54.0,54.0,54.0,54.0,54.0,55.0,55.0,56.0,56.0,56.0,57.0,58.0,59.0,59.0,60.0,60.0,61.0,61.0,61.0,61.0,62.0,62.0,63.0,64.0,64.0,65.0,66.0,66.0,66.0,68.0,69.0,70.0,70.0,72.0,73.0,74.0,74.0,75.0,75.0,76.0,76.0,76.0,77.0,77.0,79.0,80.0,80.0,81.0,82.0,83.0,85.0,85.0,85.0,86.0,86.0,87.0,88.0,90.0,91.0,91.0,92.0,95.0,96.0,95.0,99.0,101.0,101.0,102.0,103.0,0.0,0.0,0.0,0.0,0.0,0.0,0.0,53.0,53.0,53.0,53.0,52.0,52.0,52.0,51.0,51.0,52.0,53.0,53.0,53.0,52.0,53.0,53.0,53.0,53.0,53.0,53.0,53.0,54.0,54.0,54.0,55.0,55.0,55.0,55.0,55.0,55.0,55.0,54.0,54.0,53.0,53.0,53.0,54.0,53.0,53.0,52.0,52.0,52.0,52.0,52.0,52.0,52.0,51.0,51.0,51.0,51.0,51.0,51.0,51.0,50.0,50.0,50.0,50.0,49.0,49.0,49.0,49.0,48.0,48.0,48.0,48.0,48.0,48.0,47.0,47.0,47.0,46.0,46.0,46.0,46.0,46.0,46.0,46.0,47.0,46.0,47.0,48.0,48.0,48.0,48.0,48.0,48.0,48.0,48.0,48.0,49.0,49.0,49.0,49.0,49.0,50.0,49.0,49.0,50.0,50.0,50.0,50.0,50.0,50.0,50.0,50.0,50.0,50.0,50.0,49.0,49.0,49.0,49.0,51.0,51.0,51.0,51.0,51.0,51.0,51.0,51.0,52.0,52.0,52.0,53.0,53.0,53.0,53.0,54.0,54.0,54.0,54.0,54.0,54.0,55.0,55.0,55.0,55.0,55.0,55.0,55.0,55.0,55.0,55.0,55.0,55.0,55.0,56.0,56.0,56.0,56.0,56.0,56.0,55.0,55.0,56.0,56.0,55.0,56.0,56.0,55.0,55.0,55.0,55.0,56.0,56.0,55.0,55.0,55.0,55.0,54.0,55.0,55.0,55.0,55.0,55.0,54.0,54.0,54.0,54.0,200.0,190.0,190.0,186.0,191.0,186.0,187.0,187.0,187.0,187.0,188.0,184.0,185.0,185.0,186.0,187.0,187.0,184.0,184.0,181.0,177.0,178.0,179.0,175.0,176.0,176.0,177.0,177.0,178.0,179.0,179.0,180.0,180.0,181.0,182.0,182.0,182.0,183.0,183.0,179.0,180.0,180.0,180.0,176.0,177.0,173.0,173.0,173.0,174.0,174.0,174.0,174.0,174.0,0.0,0.0,0.0,0.0,0.0,0.0,0.0,0.0
55.0,55.0,55.0,54.0,54.0,54.0,54.0,54.0,54.0,54.0,55.0,55.0,56.0,56.0,57.0,58.0,59.0,60.0,60.0,61.0,61.0,61.0,61.0,61.0,62.0,62.0,63.0,64.0,64.0,65.0,66.0,67.0,67.0,67.0,68.0,69.0,70.0,72.0,73.0,74.0,74.0,75.0,76.0,76.0,77.0,76.0,77.0,77.0,79.0,80.0,80.0,81.0,83.0,84.0,85.0,85.0,86.0,86.0,87.0,87.0,90.0,90.0,91.0,91.0,92.0,94.0,94.0,95.0,96.0,101.0,99.0,100.0,100.0,0.0,0.0,0.0,0.0,0.0,0.0,0.0,53.0,53.0,53.0,52.0,52.0,52.0,52.0,52.0,52.0,52.0,53.0,52.0,52.0,52.0,53.0,53.0,53.0,53.0,53.0,53.0,53.0,53.0,54.0,54.0,55.0,55.0,55.0,55.0,54.0,55.0,55.0,55.0,54.0,53.0,54.0,54.0,54.0,53.0,53.0,52.0,52.0,52.0,52.0,52.0,52.0,52.0,51.0,51.0,51.0,50.0,51.0,51.0,51.0,50.0,50.0,50.0,50.0,49.0,49.0,49.0,49.0,48.0,48.0,48.0,48.0,48.0,47.0,47.0,47.0,46.0,47.0,46.0,46.0,46.0,46.0,46.0,46.0,46.0,46.0,46.0,48.0,48.0,48.0,48.0,48.0,48.0,48.0,48.0,49.0,49.0,49.0,49.0,49.0,50.0,50.0,49.0,50.0,50.0,50.0,50.0,50.0,50.0,50.0,50.0,50.0,50.0,50.0,49.0,49.0,49.0,49.0,50.0,50.0,50.0,50.0,51.0,51.0,51.0,51.0,52.0,52.0,52.0,52.0,53.0,53.0,53.0,53.0,54.0,54.0,54.0,54.0,55.0,55.0,55.0,55.0,55.0,55.0,55.0,55.0,55.0,55.0,55.0,55.0,55.0,56.0,56.0,56.0,56.0,56.0,56.0,56.0,56.0,55.0,55.0,56.0,56.0,55.0,56.0,56.0,55.0,55.0,56.0,56.0,56.0,56.0,55.0,55.0,55.0,55.0,55.0,55.0,55.0,55.0,55.0,55.0,55.0,55.0,199.0,194.0,200.0,195.0,190.0,190.0,191.0,191.0,187.0,187.0,187.0,187.0,188.0,184.0,185.0,185.0,186.0,186.0,187.0,183.0,184.0,181.0,181.0,178.0,178.0,179.0,176.0,176.0,177.0,177.0,178.0,179.0,180.0,180.0,177.0,181.0,182.0,182.0,183.0,183.0,179.0,179.0,180.0,176.0,176.0,173.0,173.0,173.0,173.0,174.0,174.0,174.0,175.0,175.0,175.0,0.0,0.0,0.0,0.0,0.0,0.0,0.0,0.0
55.0,55.0,55.0,54.0,54.0,54.0,53.0,53.0,53.0,54.0,54.0,56.0,56.0,56.0,56.0,56.0,59.0,59.0,60.0,61.0,61.0,61.0,61.0,61.0,61.0,61.0,63.0,63.0,64.0,65.0,65.0,66.0,67.0,67.0,67.0,69.0,69.0,72.0,73.0,74.0,74.0,75.0,76.0,76.0,77.0,77.0,77.0,78.0,79.0,80.0,80.0,82.0,83.0,84.0,85.0,85.0,86.0,86.0,87.0,89.0,90.0,90.0,91.0,91.0,92.0,94.0,94.0,93.0,96.0,99.0,101.0,100.0,100.0,101.0,0.0,0.0,0.0,0.0,0.0,0.0,53.0,53.0,53.0,52.0,52.0,52.0,52.0,52.0,52.0,53.0,53.0,52.0,52.0,52.0,53.0,53.0,53.0,53.0,53.0,53.0,53.0,53.0,53.0,54.0,54.0,54.0,54.0,54.0,55.0,55.0,55.0,54.0,54.0,53.0,54.0,54.0,54.0,53.0,53.0,53.0,52.0,52.0,52.0,52.0,52.0,52.0,51.0,51.0,51.0,51.0,51.0,51.0,51.0,50.0,50.0,50.0,50.0,49.0,49.0,49.0,49.0,48.0,48.0,48.0,48.0,48.0,47.0,47.0,47.0,46.0,46.0,46.0,46.0,46.0,46.0,46.0,46.0,46.0,46.0,46.0,47.0,48.0,48.0,48.0,48.0,48.0,48.0,48.0,49.0,49.0,49.0,49.0,49.0,49.0,49.0,49.0,50.0,50.0,50.0,50.0,50.0,50.0,50.0,50.0,50.0,50.0,50.0,49.0,49.0,50.0,50.0,50.0,50.0,50.0,50.0,51.0,51.0,51.0,51.0,52.0,52.0,52.0,53.0,53.0,53.0,53.0,54.0,54.0,54.0,54.0,54.0,55.0,55.0,55.0,55.0,55.0,55.0,55.0,55.0,55.0,55.0,55.0,55.0,55.0,56.0,56.0,56.0,56.0,56.0,56.0,56.0,56.0,56.0,55.0,55.0,56.0,55.0,56.0,56.0,56.0,56.0,56.0,56.0,56.0,56.0,56.0,56.0,55.0,56.0,55.0,55.0,55.0,56.0,55.0,55.0,55.0,194.0,194.0,195.0,195.0,195.0,190.0,190.0,186.0,186.0,187.0,187.0,188.0,183.0,188.0,185.0,185.0,185.0,186.0,187.0,187.0,184.0,184.0,181.0,181.0,178.0,179.0,175.0,176.0,176.0,177.0,177.0,178.0,179.0,180.0,180.0,177.0,182.0,182.0,182.0,183.0,183.0,179.0,180.0,180.0,176.0,176.0,173.0,173.0,173.0,174.0,174.0,174.0,174.0,175.0,175.0,175.0,0.0,0.0,0.0,0.0,0.0,0.0,0.0,0.0
55.0,56.0,55.0,55.0,54.0,54.0,54.0,53.0,54.0,54.0,54.0,55.0,56.0,56.0,56.0,58.0,58.0,59.0,60.0,60.0,61.0,61.0,61.0,61.0,61.0,61.0,62.0,62.0,63.0,64.0,66.0,66.0,67.0,67.0,67.0,69.0,69.0,70.0,73.0,73.0,74.0,75.0,76.0,76.0,77.0,78.0,77.0,79.0,80.0,81.0,80.0,80.0,82.0,84.0,85.0,85.0,86.0,86.0,87.0,89.0,90.0,90.0,91.0,91.0,92.0,94.0,93.0,95.0,98.0,99.0,100.0,100.0,100.0,101.0,101.0,0.0,0.0,0.0,0.0,0.0,0.0,53.0,53.0,52.0,52.0,52.0,53.0,53.0,53.0,53.0,53.0,53.0,53.0,53.0,53.0,53.0,53.0,53.0,53.0,54.0,53.0,53.0,54.0,54.0,54.0,54.0,54.0,54.0,55.0,55.0,55.0,54.0,54.0,54.0,54.0,54.0,54.0,54.0,53.0,53.0,52.0,52.0,52.0,52.0,52.0,52.0,52.0,51.0,51.0,51.0,51.0,51.0,51.0,50.0,50.0,50.0,49.0,49.0,49.0,49.0,49.0,48.0,48.0,48.0,48.0,48.0,47.0,47.0,47.0,47.0,47.0,46.0,46.0,46.0,46.0,46.0,46.0,46.0,46.0,46.0,47.0,48.0,48.0,48.0,48.0,48.0,48.0,49.0,49.0,49.0,49.0,49.0,49.0,49.0,49.0,50.0,50.0,50.0,50.0,50.0,51.0,50.0,50.0,50.0,50.0,50.0,50.0,50.0,50.0,50.0,50.0,50.0,50.0,50.0,50.0,50.0,51.0,51.0,51.0,52.0,52.0,52.0,52.0,53.0,52.0,53.0,54.0,54.0,54.0,55.0,55.0,55.0,55.0,55.0,55.0,55.0,55.0,55.0,55.0,55.0,56.0,56.0,56.0,55.0,56.0,56.0,56.0,56.0,56.0,56.0,56.0,56.0,56.0,55.0,55.0,55.0,56.0,56.0,56.0,56.0,56.0,56.0,56.0,56.0,56.0,56.0,56.0,56.0,56.0,55.0,55.0,56.0,56.0,56.0,55.0,190.0,195.0,195.0,195.0,195.0,190.0,190.0,186.0,186.0,186.0,187.0,187.0,188.0,183.0,188.0,185.0,185.0,186.0,186.0,187.0,183.0,184.0,180.0,181.0,177.0,178.0,179.0,175.0,176.0,176.0,177.0,178.0,175.0,175.0,180.0,176.0,177.0,177.0,178.0,178.0,179.0,179.0,179.0,180.0,176.0,176.0,176.0,173.0,173.0,173.0,173.0,174.0,174.0,174.0,175.0,175.0,175.0,0.0,0.0,0.0,0.0,0.0,0.0,0.0,0.0
55.0,55.0,54.0,54.0,54.0,54.0,54.0,53.0,53.0,54.0,54.0,56.0,56.0,56.0,56.0,57.0,57.0,58.0,60.0,60.0,61.0,61.0,61.0,60.0,61.0,61.0,62.0,62.0,64.0,66.0,66.0,66.0,67.0,67.0,67.0,69.0,69.0,70.0,72.0,73.0,74.0,75.0,75.0,76.0,77.0,78.0,78.0,79.0,80.0,81.0,81.0,80.0,82.0,84.0,85.0,85.0,86.0,86.0,87.0,89.0,90.0,90.0,91.0,93.0,92.0,94.0,95.0,95.0,99.0,99.0,100.0,100.0,102.0,101.0,101.0,101.0,0.0,0.0,0.0,0.0,0.0,0.0,53.0,53.0,53.0,53.0,53.0,53.0,53.0,53.0,53.0,52.0,52.0,52.0,53.0,53.0,53.0,53.0,53.0,53.0,53.0,53.0,53.0,54.0,54.0,54.0,54.0,54.0,54.0,54.0,54.0,54.0,54.0,54.0,54.0,54.0,54.0,54.0,53.0,53.0,52.0,52.0,52.0,52.0,52.0,52.0,51.0,51.0,51.0,51.0,51.0,51.0,51.0,50.0,50.0,50.0,49.0,49.0,49.0,49.0,48.0,48.0,48.0,48.0,48.0,48.0,47.0,47.0,46.0,47.0,46.0,46.0,46.0,46.0,46.0,46.0,46.0,46.0,46.0,46.0,48.0,48.0,48.0,48.0,48.0,48.0,48.0,49.0,49.0,49.0,49.0,49.0,49.0,49.0,50.0,50.0,50.0,50.0,50.0,50.0,50.0,50.0,50.0,50.0,50.0,50.0,50.0,50.0,50.0,50.0,50.0,50.0,50.0,50.0,50.0,51.0,51.0,51.0,51.0,51.0,52.0,52.0,52.0,53.0,52.0,53.0,54.0,54.0,55.0,55.0,55.0,55.0,55.0,55.0,55.0,55.0,55.0,55.0,55.0,56.0,56.0,56.0,56.0,56.0,57.0,56.0,56.0,56.0,56.0,56.0,56.0,56.0,55.0,55.0,55.0,55.0,55.0,56.0,56.0,56.0,56.0,56.0,56.0,56.0,56.0,57.0,56.0,56.0,56.0,56.0,56.0,56.0,56.0,56.0,190.0,190.0,190.0,190.0,185.0,190.0,186.0,186.0,191.0,186.0,186.0,187.0,187.0,188.0,188.0,189.0,185.0,185.0,186.0,186.0,187.0,183.0,184.0,180.0,177.0,178.0,178.0,175.0,175.0,176.0,176.0,177.0,178.0,174.0,175.0,176.0,177.0,173.0,178.0,178.0,178.0,179.0,179.0,176.0,176.0,176.0,177.0,177.0,173.0,173.0,174.0,174.0,174.0,174.0,175.0,176.0,176.0,176.0,0.0,0.0,0.0,0.0,0.0,0.0,0.0,0.0
55.0,55.0,54.0,54.0,54.0,54.0,54.0,54.0,54.0,54.0,54.0,56.0,57.0,56.0,56.0,57.0,57.0,58.0,59.0,60.0,60.0,61.0,61.0,61.0,61.0,61.0,62.0,62.0,64.0,66.0,66.0,66.0,66.0,67.0,67.0,68.0,69.0,71.0,72.0,73.0,74.0,75.0,76.0,76.0,77.0,78.0,78.0,79.0,80.0,81.0,81.0,82.0,83.0,84.0,85.0,85.0,86.0,86.0,87.0,87.0,90.0,90.0,91.0,93.0,93.0,94.0,95.0,95.0,98.0,99.0,100.0,102.0,101.0,105.0,101.0,102.0,0.0,0.0,0.0,0.0,0.0,0.0,0.0,53.0,52.0,53.0,53.0,52.0,53.0,53.0,53.0,52.0,52.0,52.0,53.0,53.0,53.0,53.0,53.0,53.0,53.0,53.0,53.0,54.0,53.0,54.0,54.0,54.0,54.0,54.0,54.0,54.0,54.0,54.0,54.0,54.0,54.0,54.0,54.0,53.0,53.0,52.0,52.0,52.0,52.0,52.0,52.0,51.0,51.0,51.0,51.0,51.0,51.0,50.0,50.0,50.0,49.0,49.0,49.0,48.0,48.0,48.0,48.0,48.0,48.0,47.0,47.0,47.0,47.0,47.0,47.0,46.0,46.0,46.0,46.0,46.0,46.0,46.0,46.0,46.0,48.0,48.0,48.0,48.0,48.0,48.0,49.0,49.0,49.0,49.0,49.0,49.0,49.0,50.0,50.0,50.0,50.0,50.0,50.0,50.0,50.0,50.0,50.0,51.0,50.0,50.0,50.0,50.0,50.0,49.0,49.0,50.0,49.0,49.0,50.0,50.0,51.0,51.0,51.0,52.0,52.0,52.0,52.0,52.0,53.0,53.0,54.0,54.0,55.0,55.0,55.0,55.0,55.0,55.0,55.0,55.0,55.0,55.0,55.0,56.0,56.0,56.0,56.0,56.0,57.0,56.0,56.0,56.0,56.0,56.0,56.0,56.0,56.0,55.0,55.0,55.0,56.0,56.0,57.0,57.0,56.0,56.0,56.0,56.0,57.0,57.0,57.0,57.0,56.0,56.0,56.0,56.0,57.0,195.0,195.0,190.0,190.0,190.0,190.0,186.0,186.0,186.0,186.0,186.0,187.0,187.0,187.0,188.0,188.0,189.0,189.0,185.0,186.0,186.0,187.0,183.0,180.0,180.0,177.0,178.0,178.0,175.0,176.0,176.0,177.0,177.0,178.0,175.0,175.0,176.0,177.0,177.0,178.0,178.0,179.0,179.0,179.0,176.0,176.0,176.0,176.0,173.0,173.0,173.0,174.0,174.0,174.0,175.0,176.0,176.0,176.0,176.0,0.0,0.0,0.0,0.0,0.0,0.0,0.0,0.0
55.0,55.0,55.0,54.0,54.0,54.0,54.0,54.0,54.0,54.0,54.0,56.0,57.0,56.0,57.0,57.0,57.0,58.0,59.0,60.0,59.0,61.0,61.0,61.0,61.0,61.0,63.0,63.0,64.0,65.0,67.0,67.0,67.0,67.0,67.0,68.0,69.0,70.0,72.0,72.0,73.0,74.0,75.0,76.0,77.0,78.0,78.0,79.0,80.0,81.0,81.0,81.0,82.0,84.0,85.0,85.0,86.0,86.0,87.0,87.0,90.0,90.0,91.0,91.0,92.0,93.0,94.0,96.0,99.0,100.0,100.0,102.0,101.0,106.0,106.0,106.0,0.0,0.0,0.0,0.0,0.0,0.0,0.0,54.0,54.0,53.0,53.0,53.0,54.0,54.0,53.0,53.0,52.0,53.0,53.0,53.0,53.0,53.0,53.0,53.0,53.0,53.0,53.0,53.0,53.0,53.0,53.0,54.0,54.0,54.0,54.0,54.0,54.0,54.0,54.0,54.0,54.0,54.0,54.0,54.0,54.0,53.0,53.0,52.0,52.0,52.0,51.0,51.0,51.0,51.0,50.0,51.0,51.0,50.0,50.0,50.0,49.0,49.0,49.0,48.0,48.0,48.0,48.0,48.0,47.0,47.0,46.0,47.0,47.0,46.0,47.0,46.0,46.0,46.0,46.0,46.0,46.0,46.0,46.0,46.0,48.0,48.0,48.0,48.0,48.0,49.0,49.0,49.0,49.0,49.0,49.0,49.0,49.0,50.0,50.0,50.0,50.0,50.0,50.0,50.0,50.0,51.0,51.0,50.0,50.0,50.0,50.0,50.0,50.0,50.0,50.0,50.0,50.0,50.0,50.0,50.0,51.0,51.0,52.0,52.0,52.0,52.0,52.0,53.0,53.0,53.0,54.0,54.0,55.0,55.0,55.0,55.0,55.0,55.0,55.0,55.0,55.0,55.0,55.0,56.0,56.0,56.0,56.0,56.0,57.0,57.0,56.0,56.0,56.0,56.0,56.0,56.0,56.0,55.0,55.0,55.0,55.0,55.0,56.0,57.0,56.0,56.0,56.0,56.0,57.0,57.0,57.0,57.0,57.0,56.0,57.0,57.0,57.0,195.0,190.0,190.0,186.0,190.0,186.0,186.0,186.0,186.0,191.0,187.0,187.0,188.0,188.0,188.0,188.0,189.0,185.0,186.0,186.0,186.0,187.0,183.0,180.0,176.0,177.0,178.0,179.0,175.0,176.0,176.0,177.0,177.0,178.0,175.0,175.0,176.0,177.0,174.0,174.0,174.0,179.0,179.0,180.0,176.0,176.0,176.0,176.0,177.0,173.0,173.0,174.0,174.0,175.0,176.0,176.0,176.0,177.0,177.0,0.0,0.0,0.0,0.0,0.0,0.0,0.0,0.0
56.0,55.0,55.0,54.0,54.0,54.0,54.0,54.0,54.0,54.0,54.0,56.0,57.0,56.0,57.0,57.0,57.0,58.0,59.0,60.0,60.0,61.0,61.0,61.0,61.0,62.0,63.0,63.0,64.0,65.0,67.0,67.0,68.0,68.0,67.0,68.0,69.0,70.0,72.0,73.0,73.0,74.0,74.0,75.0,76.0,78.0,79.0,79.0,80.0,80.0,81.0,81.0,82.0,84.0,85.0,85.0,86.0,86.0,87.0,87.0,89.0,90.0,91.0,92.0,94.0,95.0,94.0,96.0,99.0,99.0,100.0,101.0,101.0,106.0,106.0,107.0,107.0,0.0,0.0,0.0,0.0,0.0,0.0,0.0,54.0,54.0,54.0,54.0,54.0,54.0,53.0,53.0,53.0,53.0,53.0,53.0,53.0,53.0,53.0,53.0,53.0,53.0,53.0,53.0,53.0,53.0,53.0,54.0,54.0,54.0,54.0,54.0,54.0,54.0,54.0,55.0,54.0,54.0,54.0,54.0,54.0,54.0,53.0,53.0,52.0,52.0,51.0,51.0,51.0,51.0,50.0,51.0,50.0,50.0,50.0,50.0,49.0,49.0,49.0,48.0,48.0,48.0,48.0,48.0,47.0,47.0,46.0,47.0,47.0,46.0,47.0,46.0,46.0,46.0,46.0,46.0,46.0,46.0,46.0,46.0,48.0,48.0,48.0,48.0,48.0,49.0,49.0,49.0,49.0,49.0,49.0,49.0,49.0,50.0,50.0,50.0,50.0,50.0,50.0,50.0,51.0,51.0,50.0,50.0,50.0,50.0,50.0,50.0,50.0,50.0,50.0,50.0,50.0,50.0,50.0,50.0,51.0,51.0,52.0,52.0,52.0,52.0,52.0,53.0,53.0,53.0,54.0,54.0,54.0,55.0,55.0,55.0,55.0,55.0,55.0,56.0,56.0,56.0,56.0,56.0,57.0,57.0,56.0,57.0,57.0,57.0,56.0,56.0,56.0,56.0,56.0,56.0,56.0,55.0,55.0,56.0,55.0,55.0,56.0,57.0,56.0,56.0,57.0,57.0,57.0,57.0,57.0,57.0,57.0,56.0,57.0,195.0,195.0,190.0,190.0,190.0,186.0,191.0,186.0,186.0,186.0,187.0,187.0,187.0,187.0,188.0,188.0,188.0,189.0,189.0,185.0,186.0,186.0,187.0,187.0,184.0,180.0,176.0,177.0,178.0,179.0,179.0,176.0,176.0,177.0,177.0,178.0,175.0,176.0,176.0,177.0,177.0,178.0,174.0,179.0,179.0,179.0,176.0,176.0,172.0,177.0,173.0,173.0,174.0,174.0,171.0,175.0,176.0,176.0,177.0,173.0,173.0,0.0,0.0,0.0,0.0,0.0,0.0,0.0,0.0
56.0,56.0,55.0,54.0,54.0,54.0,54.0,54.0,54.0,54.0,54.0,56.0,57.0,56.0,57.0,56.0,57.0,57.0,59.0,60.0,61.0,61.0,61.0,61.0,61.0,62.0,62.0,63.0,64.0,65.0,66.0,67.0,68.0,68.0,68.0,69.0,70.0,71.0,72.0,72.0,74.0,74.0,75.0,75.0,76.0,78.0,78.0,79.0,79.0,80.0,80.0,81.0,82.0,84.0,85.0,85.0,86.0,86.0,87.0,87.0,89.0,90.0,91.0,92.0,94.0,95.0,96.0,96.0,97.0,98.0,100.0,101.0,104.0,106.0,106.0,107.0,107.0,104.0,0.0,0.0,0.0,0.0,0.0,0.0,0.0,54.0,54.0,54.0,54.0,53.0,53.0,53.0,53.0,53.0,53.0,53.0,53.0,53.0,53.0,53.0,53.0,53.0,53.0,53.0,53.0,53.0,53.0,54.0,54.0,54.0,54.0,54.0,54.0,54.0,54.0,54.0,54.0,54.0,54.0,54.0,54.0,54.0,53.0,53.0,52.0,52.0,51.0,51.0,51.0,51.0,50.0,50.0,50.0,50.0,49.0,50.0,49.0,49.0,49.0,48.0,48.0,48.0,48.0,48.0,47.0,47.0,47.0,47.0,47.0,46.0,46.0,46.0,46.0,46.0,46.0,46.0,46.0,46.0,46.0,46.0,47.0,48.0,48.0,48.0,48.0,49.0,49.0,49.0,49.0,49.0,49.0,49.0,50.0,50.0,50.0,50.0,50.0,50.0,50.0,51.0,50.0,50.0,50.0,50.0,50.0,50.0,50.0,50.0,50.0,50.0,50.0,50.0,50.0,50.0,51.0,51.0,52.0,52.0,52.0,52.0,52.0,52.0,53.0,53.0,53.0,53.0,53.0,54.0,54.0,54.0,54.0,55.0,55.0,55.0,56.0,0.0,0.0,0.0,0.0,0.0,57.0,57.0,56.0,57.0,57.0,57.0,56.0,57.0,57.0,56.0,56.0,56.0,56.0,55.0,55.0,57.0,57.0,57.0,57.0,57.0,57.0,57.0,57.0,57.0,57.0,57.0,58.0,57.0,57.0,57.0,57.0,195.0,195.0,190.0,190.0,190.0,186.0,191.0,186.0,187.0,187.0,187.0,187.0,187.0,188.0,188.0,188.0,188.0,189.0,189.0,185.0,186.0,186.0,187.0,188.0,184.0,180.0,177.0,178.0,178.0,175.0,176.0,176.0,176.0,177.0,178.0,179.0,175.0,176.0,176.0,173.0,173.0,174.0,174.0,175.0,179.0,179.0,176.0,176.0,176.0,177.0,173.0,174.0,174.0,170.0,171.0,175.0,176.0,173.0,173.0,173.0,174.0,0.0,0.0,0.0,0.0,0.0,0.0,0.0,0.0
56.0,56.0,55.0,55.0,54.0,54.0,54.0,54.0,54.0,54.0,54.0,56.0,57.0,56.0,57.0,57.0,57.0,57.0,58.0,59.0,60.0,61.0,61.0,62.0,62.0,62.0,63.0,63.0,64.0,64.0,66.0,67.0,68.0,69.0,70.0,70.0,70.0,71.0,71.0,72.0,73.0,74.0,75.0,75.0,76.0,78.0,78.0,79.0,79.0,80.0,81.0,81.0,82.0,84.0,85.0,85.0,86.0,86.0,86.0,87.0,89.0,90.0,91.0,92.0,93.0,95.0,96.0,96.0,97.0,98.0,100.0,101.0,106.0,106.0,105.0,107.0,106.0,106.0,106.0,0.0,0.0,0.0,0.0,0.0,0.0,54.0,54.0,54.0,54.0,53.0,54.0,53.0,53.0,53.0,54.0,53.0,53.0,53.0,53.0,53.0,53.0,53.0,53.0,53.0,53.0,53.0,53.0,54.0,54.0,54.0,54.0,54.0,54.0,55.0,55.0,55.0,55.0,55.0,54.0,54.0,54.0,55.0,54.0,53.0,52.0,52.0,52.0,51.0,51.0,51.0,50.0,50.0,50.0,50.0,49.0,50.0,49.0,49.0,49.0,48.0,48.0,48.0,48.0,48.0,47.0,47.0,47.0,47.0,47.0,46.0,46.0,46.0,46.0,46.0,46.0,46.0,46.0,46.0,46.0,46.0,47.0,48.0,48.0,48.0,48.0,48.0,48.0,49.0,49.0,49.0,49.0,49.0,49.0,49.0,49.0,50.0,50.0,50.0,50.0,50.0,50.0,50.0,50.0,50.0,50.0,50.0,50.0,50.0,50.0,50.0,50.0,50.0,50.0,50.0,51.0,52.0,52.0,52.0,52.0,52.0,52.0,52.0,53.0,53.0,53.0,53.0,53.0,54.0,54.0,54.0,54.0,55.0,55.0,56.0,0.0,0.0,0.0,0.0,0.0,0.0,0.0,57.0,56.0,56.0,56.0,57.0,57.0,56.0,57.0,56.0,56.0,56.0,56.0,56.0,57.0,57.0,58.0,57.0,57.0,57.0,57.0,57.0,57.0,57.0,57.0,57.0,58.0,58.0,57.0,200.0,195.0,195.0,195.0,190.0,190.0,191.0,186.0,191.0,187.0,187.0,187.0,187.0,188.0,188.0,188.0,188.0,188.0,189.0,189.0,190.0,186.0,186.0,187.0,187.0,183.0,180.0,180.0,177.0,178.0,178.0,175.0,180.0,176.0,177.0,177.0,178.0,179.0,175.0,176.0,176.0,173.0,173.0,174.0,174.0,175.0,179.0,175.0,176.0,176.0,176.0,177.0,173.0,174.0,174.0,171.0,172.0,175.0,175.0,173.0,174.0,174.0,174.0,0.0,0.0,0.0,0.0,0.0,0.0,0.0,0.0
56.0,56.0,55.0,54.0,54.0,54.0,54.0,53.0,54.0,54.0,54.0,56.0,57.0,56.0,57.0,57.0,57.0,57.0,58.0,59.0,60.0,61.0,61.0,62.0,62.0,62.0,63.0,63.0,65.0,65.0,66.0,67.0,68.0,68.0,70.0,71.0,70.0,71.0,71.0,72.0,72.0,73.0,74.0,74.0,76.0,77.0,78.0,79.0,79.0,80.0,81.0,81.0,83.0,84.0,85.0,85.0,86.0,86.0,86.0,87.0,88.0,90.0,91.0,94.0,95.0,95.0,96.0,96.0,97.0,98.0,98.0,101.0,106.0,106.0,105.0,105.0,106.0,106.0,105.0,0.0,0.0,0.0,0.0,0.0,0.0,0.0,54.0,54.0,54.0,54.0,54.0,54.0,54.0,53.0,53.0,53.0,53.0,53.0,53.0,53.0,53.0,53.0,53.0,53.0,53.0,53.0,54.0,54.0,54.0,54.0,54.0,54.0,54.0,53.0,55.0,55.0,55.0,55.0,55.0,55.0,54.0,55.0,55.0,54.0,52.0,52.0,52.0,51.0,51.0,51.0,50.0,50.0,51.0,50.0,49.0,49.0,49.0,49.0,48.0,48.0,48.0,48.0,47.0,47.0,47.0,47.0,47.0,47.0,47.0,46.0,46.0,46.0,46.0,46.0,47.0,47.0,46.0,46.0,46.0,46.0,47.0,48.0,48.0,48.0,48.0,48.0,48.0,48.0,49.0,49.0,49.0,49.0,49.0,50.0,50.0,50.0,50.0,50.0,50.0,50.0,50.0,50.0,50.0,50.0,50.0,50.0,50.0,50.0,50.0,50.0,50.0,50.0,51.0,51.0,51.0,52.0,52.0,52.0,52.0,52.0,52.0,53.0,53.0,53.0,53.0,53.0,53.0,53.0,54.0,54.0,54.0,56.0,56.0,0.0,0.0,0.0,0.0,0.0,0.0,0.0,0.0,112.0,112.0,56.0,57.0,57.0,57.0,56.0,56.0,56.0,56.0,56.0,56.0,55.0,57.0,57.0,57.0,0.0,197.0,197.0,57.0,57.0,57.0,57.0,58.0,58.0,58.0,201.0,201.0,200.0,196.0,195.0,195.0,190.0,190.0,191.0,191.0,191.0,187.0,187.0,187.0,188.0,188.0,188.0,188.0,189.0,189.0,189.0,189.0,186.0,186.0,186.0,187.0,183.0,184.0,180.0,176.0,177.0,178.0,178.0,175.0,180.0,176.0,177.0,177.0,178.0,179.0,175.0,176.0,177.0,173.0,174.0,174.0,174.0,175.0,179.0,175.0,176.0,176.0,176.0,176.0,173.0,174.0,174.0,171.0,172.0,175.0,176.0,173.0,174.0,174.0,174.0,0.0,0.0,0.0,0.0,0.0,0.0,0.0,0.0
56.0,56.0,55.0,54.0,54.0,54.0,54.0,53.0,53.0,54.0,54.0,55.0,56.0,57.0,57.0,57.0,57.0,57.0,58.0,58.0,59.0,61.0,61.0,62.0,62.0,62.0,63.0,64.0,65.0,66.0,66.0,67.0,68.0,68.0,70.0,70.0,71.0,71.0,71.0,72.0,72.0,73.0,74.0,76.0,77.0,78.0,79.0,80.0,81.0,80.0,81.0,82.0,83.0,84.0,85.0,85.0,86.0,86.0,86.0,87.0,88.0,90.0,91.0,93.0,95.0,94.0,96.0,96.0,97.0,96.0,98.0,101.0,106.0,105.0,105.0,106.0,106.0,105.0,105.0,0.0,0.0,0.0,0.0,0.0,0.0,0.0,0.0,54.0,54.0,54.0,54.0,54.0,54.0,54.0,54.0,53.0,53.0,53.0,53.0,53.0,53.0,53.0,53.0,53.0,54.0,54.0,54.0,54.0,54.0,55.0,54.0,54.0,54.0,54.0,54.0,54.0,55.0,55.0,55.0,55.0,54.0,55.0,55.0,54.0,52.0,52.0,52.0,51.0,51.0,51.0,50.0,50.0,50.0,50.0,49.0,49.0,49.0,49.0,48.0,48.0,48.0,48.0,48.0,47.0,47.0,47.0,47.0,47.0,47.0,46.0,46.0,46.0,46.0,46.0,46.0,47.0,46.0,46.0,46.0,46.0,47.0,48.0,48.0,48.0,48.0,48.0,48.0,49.0,49.0,49.0,49.0,49.0,49.0,50.0,50.0,50.0,50.0,50.0,50.0,50.0,50.0,50.0,50.0,50.0,50.0,50.0,50.0,50.0,50.0,50.0,50.0,50.0,51.0,51.0,51.0,52.0,52.0,52.0,52.0,52.0,53.0,53.0,53.0,53.0,53.0,53.0,54.0,54.0,54.0,54.0,55.0,56.0,56.0,0.0,0.0,0.0,0.0,0.0,0.0,0.0,112.0,112.0,112.0,112.0,112.0,111.0,111.0,56.0,56.0,56.0,56.0,55.0,55.0,55.0,55.0,55.0,198.0,197.0,197.0,197.0,0.0,58.0,58.0,58.0,58.0,58.0,58.0,200.0,201.0,201.0,195.0,195.0,195.0,190.0,190.0,191.0,191.0,191.0,187.0,187.0,188.0,188.0,188.0,188.0,188.0,189.0,189.0,189.0,190.0,186.0,186.0,186.0,187.0,183.0,184.0,180.0,177.0,177.0,178.0,179.0,175.0,180.0,180.0,177.0,178.0,178.0,179.0,175.0,176.0,177.0,173.0,174.0,174.0,174.0,175.0,179.0,179.0,180.0,176.0,177.0,177.0,173.0,174.0,174.0,171.0,172.0,172.0,173.0,173.0,174.0,174.0,175.0,0.0,0.0,0.0,0.0,0.0,0.0,0.0,0.0
56.0,56.0,55.0,54.0,54.0,54.0,54.0,54.0,54.0,54.0,54.0,54.0,57.0,57.0,57.0,57.0,57.0,57.0,58.0,58.0,60.0,61.0,61.0,61.0,62.0,63.0,63.0,63.0,65.0,66.0,67.0,67.0,67.0,68.0,69.0,70.0,71.0,72.0,71.0,72.0,72.0,73.0,74.0,76.0,77.0,78.0,79.0,80.0,79.0,80.0,81.0,82.0,82.0,84.0,84.0,85.0,85.0,86.0,86.0,87.0,88.0,90.0,92.0,93.0,95.0,94.0,96.0,95.0,96.0,96.0,99.0,101.0,104.0,105.0,104.0,106.0,106.0,105.0,105.0,0.0,0.0,0.0,0.0,0.0,0.0,0.0,0.0,54.0,54.0,54.0,54.0,54.0,54.0,54.0,54.0,53.0,54.0,53.0,53.0,53.0,53.0,54.0,54.0,54.0,54.0,54.0,54.0,55.0,54.0,54.0,54.0,54.0,54.0,54.0,54.0,54.0,54.0,53.0,56.0,55.0,55.0,55.0,55.0,0.0,0.0,52.0,52.0,51.0,51.0,51.0,50.0,50.0,50.0,50.0,49.0,49.0,49.0,49.0,48.0,48.0,48.0,48.0,48.0,47.0,47.0,47.0,47.0,47.0,47.0,46.0,46.0,46.0,46.0,46.0,46.0,46.0,46.0,46.0,46.0,46.0,47.0,48.0,48.0,48.0,48.0,48.0,48.0,49.0,49.0,49.0,49.0,49.0,49.0,50.0,50.0,50.0,50.0,50.0,50.0,50.0,50.0,50.0,50.0,50.0,50.0,50.0,50.0,50.0,50.0,50.0,50.0,50.0,51.0,51.0,51.0,52.0,52.0,52.0,52.0,52.0,53.0,53.0,53.0,53.0,53.0,53.0,54.0,54.0,54.0,54.0,55.0,56.0,0.0,0.0,0.0,0.0,0.0,0.0,0.0,0.0,0.0,114.0,114.0,112.0,112.0,111.0,117.0,118.0,118.0,0.0,0.0,0.0,0.0,0.0,0.0,204.0,198.0,198.0,197.0,197.0,196.0,201.0,201.0,196.0,58.0,58.0,196.0,201.0,196.0,195.0,196.0,196.0,195.0,191.0,190.0,186.0,186.0,191.0,187.0,187.0,188.0,188.0,188.0,189.0,189.0,184.0,185.0,185.0,185.0,186.0,186.0,187.0,187.0,183.0,184.0,180.0,181.0,177.0,178.0,179.0,180.0,180.0,181.0,181.0,178.0,179.0,179.0,176.0,176.0,177.0,173.0,174.0,174.0,179.0,179.0,179.0,180.0,180.0,176.0,177.0,173.0,174.0,174.0,171.0,171.0,172.0,172.0,173.0,173.0,174.0,174.0,175.0,0.0,0.0,0.0,0.0,0.0,0.0,0.0,0.0
56.0,56.0,55.0,54.0,54.0,54.0,54.0,54.0,54.0,54.0,54.0,54.0,53.0,57.0,56.0,57.0,57.0,57.0,58.0,59.0,60.0,60.0,62.0,61.0,62.0,63.0,63.0,64.0,65.0,66.0,66.0,67.0,67.0,68.0,68.0,69.0,71.0,72.0,72.0,72.0,72.0,73.0,74.0,75.0,76.0,78.0,79.0,80.0,80.0,80.0,81.0,82.0,82.0,83.0,84.0,85.0,85.0,86.0,86.0,87.0,88.0,91.0,92.0,94.0,95.0,94.0,96.0,95.0,96.0,96.0,97.0,100.0,103.0,105.0,104.0,106.0,105.0,105.0,104.0,106.0,110.0,0.0,0.0,0.0,0.0,0.0,0.0,54.0,54.0,55.0,55.0,54.0,54.0,55.0,55.0,54.0,54.0,54.0,54.0,54.0,54.0,54.0,54.0,54.0,54.0,55.0,55.0,55.0,54.0,56.0,56.0,56.0,54.0,56.0,56.0,54.0,54.0,54.0,56.0,55.0,55.0,55.0,55.0,0.0,0.0,0.0,52.0,51.0,51.0,51.0,50.0,50.0,50.0,50.0,49.0,49.0,49.0,49.0,48.0,48.0,48.0,48.0,48.0,48.0,47.0,47.0,47.0,47.0,47.0,46.0,46.0,46.0,46.0,46.0,47.0,46.0,46.0,46.0,46.0,46.0,48.0,48.0,48.0,48.0,48.0,49.0,49.0,49.0,49.0,49.0,49.0,50.0,50.0,49.0,49.0,50.0,50.0,50.0,50.0,50.0,50.0,50.0,50.0,50.0,50.0,50.0,50.0,50.0,50.0,50.0,50.0,50.0,51.0,51.0,51.0,52.0,52.0,52.0,52.0,52.0,52.0,52.0,52.0,52.0,53.0,53.0,53.0,53.0,53.0,54.0,55.0,57.0,0.0,0.0,0.0,0.0,0.0,0.0,0.0,0.0,114.0,114.0,114.0,114.0,114.0,113.0,117.0,118.0,118.0,118.0,119.0,119.0,119.0,118.0,205.0,204.0,204.0,203.0,198.0,197.0,197.0,196.0,201.0,196.0,196.0,196.0,196.0,196.0,196.0,196.0,191.0,191.0,191.0,191.0,191.0,191.0,191.0,192.0,187.0,188.0,188.0,188.0,188.0,189.0,189.0,189.0,185.0,185.0,186.0,186.0,186.0,187.0,187.0,183.0,184.0,180.0,177.0,177.0,178.0,179.0,180.0,180.0,177.0,178.0,178.0,179.0,180.0,176.0,177.0,177.0,174.0,174.0,174.0,178.0,179.0,179.0,179.0,180.0,176.0,177.0,173.0,174.0,174.0,174.0,171.0,172.0,172.0,173.0,173.0,174.0,175.0,175.0,0.0,0.0,0.0,0.0,0.0,0.0,0.0,0.0
56.0,56.0,55.0,54.0,54.0,54.0,54.0,54.0,55.0,54.0,54.0,54.0,54.0,55.0,57.0,57.0,57.0,57.0,58.0,58.0,59.0,60.0,61.0,62.0,62.0,62.0,63.0,64.0,65.0,66.0,67.0,67.0,68.0,68.0,68.0,69.0,71.0,72.0,73.0,73.0,73.0,73.0,74.0,75.0,76.0,78.0,78.0,79.0,80.0,81.0,81.0,82.0,83.0,84.0,84.0,85.0,85.0,86.0,87.0,88.0,90.0,91.0,92.0,93.0,95.0,94.0,96.0,95.0,96.0,98.0,97.0,100.0,103.0,104.0,104.0,104.0,105.0,105.0,104.0,106.0,109.0,0.0,0.0,0.0,0.0,0.0,0.0,0.0,55.0,55.0,55.0,55.0,55.0,55.0,55.0,55.0,55.0,54.0,54.0,54.0,54.0,54.0,54.0,54.0,54.0,54.0,54.0,56.0,54.0,56.0,56.0,56.0,56.0,57.0,56.0,55.0,54.0,54.0,57.0,54.0,55.0,55.0,0.0,0.0,0.0,0.0,0.0,51.0,51.0,51.0,50.0,50.0,50.0,50.0,49.0,49.0,49.0,48.0,48.0,48.0,48.0,48.0,48.0,48.0,48.0,47.0,47.0,47.0,47.0,47.0,47.0,46.0,46.0,46.0,47.0,47.0,46.0,46.0,46.0,46.0,48.0,48.0,48.0,48.0,49.0,49.0,49.0,49.0,49.0,49.0,50.0,49.0,49.0,49.0,50.0,50.0,50.0,50.0,50.0,50.0,50.0,50.0,50.0,50.0,50.0,50.0,50.0,50.0,50.0,50.0,51.0,51.0,51.0,51.0,52.0,52.0,52.0,52.0,52.0,52.0,52.0,52.0,52.0,52.0,52.0,53.0,53.0,53.0,53.0,54.0,56.0,0.0,0.0,0.0,0.0,0.0,0.0,0.0,0.0,116.0,116.0,118.0,116.0,115.0,115.0,117.0,119.0,118.0,118.0,118.0,119.0,119.0,119.0,118.0,205.0,204.0,203.0,203.0,198.0,197.0,197.0,197.0,202.0,196.0,196.0,196.0,196.0,196.0,196.0,196.0,191.0,191.0,191.0,191.0,191.0,187.0,192.0,187.0,188.0,188.0,188.0,188.0,189.0,189.0,189.0,185.0,185.0,186.0,186.0,186.0,187.0,187.0,188.0,184.0,184.0,180.0,181.0,178.0,179.0,179.0,180.0,176.0,177.0,178.0,178.0,179.0,176.0,176.0,176.0,177.0,177.0,174.0,178.0,178.0,179.0,179.0,179.0,176.0,176.0,177.0,173.0,174.0,174.0,171.0,171.0,172.0,172.0,173.0,174.0,174.0,175.0,172.0,0.0,0.0,0.0,0.0,0.0,0.0,0.0,0.0
56.0,55.0,54.0,54.0,54.0,54.0,54.0,54.0,55.0,54.0,54.0,54.0,54.0,56.0,57.0,57.0,57.0,57.0,57.0,58.0,59.0,60.0,60.0,62.0,62.0,62.0,63.0,64.0,65.0,66.0,66.0,67.0,68.0,69.0,69.0,69.0,70.0,72.0,72.0,73.0,74.0,73.0,74.0,75.0,76.0,77.0,78.0,79.0,80.0,81.0,81.0,82.0,83.0,83.0,84.0,85.0,85.0,86.0,87.0,88.0,90.0,91.0,92.0,93.0,95.0,94.0,95.0,95.0,96.0,97.0,97.0,100.0,101.0,103.0,104.0,103.0,105.0,104.0,106.0,108.0,109.0,111.0,0.0,0.0,0.0,0.0,0.0,0.0,0.0,55.0,55.0,55.0,55.0,55.0,56.0,55.0,55.0,55.0,55.0,55.0,55.0,55.0,54.0,54.0,54.0,54.0,54.0,54.0,55.0,56.0,56.0,57.0,57.0,57.0,57.0,55.0,54.0,54.0,55.0,55.0,54.0,55.0,55.0,0.0,0.0,0.0,0.0,0.0,0.0,50.0,50.0,50.0,50.0,50.0,49.0,49.0,49.0,48.0,48.0,48.0,48.0,48.0,48.0,48.0,48.0,47.0,47.0,47.0,47.0,47.0,47.0,46.0,46.0,46.0,47.0,47.0,47.0,47.0,46.0,46.0,48.0,48.0,48.0,49.0,49.0,49.0,49.0,49.0,49.0,49.0,49.0,49.0,49.0,50.0,50.0,50.0,50.0,50.0,50.0,50.0,50.0,50.0,50.0,50.0,50.0,50.0,50.0,50.0,50.0,50.0,51.0,51.0,51.0,51.0,52.0,52.0,52.0,52.0,52.0,52.0,52.0,52.0,52.0,52.0,52.0,53.0,53.0,53.0,53.0,54.0,55.0,0.0,0.0,0.0,0.0,0.0,0.0,0.0,0.0,118.0,118.0,118.0,118.0,117.0,117.0,117.0,119.0,119.0,118.0,120.0,119.0,119.0,119.0,118.0,205.0,205.0,204.0,203.0,203.0,197.0,197.0,197.0,202.0,196.0,196.0,196.0,196.0,196.0,196.0,191.0,191.0,191.0,191.0,191.0,191.0,187.0,192.0,187.0,188.0,188.0,188.0,189.0,189.0,189.0,189.0,190.0,186.0,186.0,187.0,187.0,187.0,188.0,188.0,184.0,185.0,181.0,177.0,178.0,179.0,179.0,176.0,177.0,177.0,178.0,178.0,179.0,176.0,176.0,176.0,177.0,174.0,174.0,178.0,179.0,179.0,179.0,179.0,180.0,176.0,177.0,174.0,174.0,174.0,171.0,172.0,172.0,173.0,173.0,174.0,175.0,175.0,172.0,0.0,0.0,0.0,0.0,0.0,0.0,0.0,0.0
56.0,55.0,55.0,54.0,54.0,54.0,54.0,54.0,55.0,54.0,54.0,54.0,54.0,55.0,57.0,57.0,57.0,58.0,58.0,59.0,59.0,59.0,60.0,61.0,62.0,63.0,64.0,64.0,65.0,65.0,66.0,67.0,68.0,68.0,69.0,69.0,70.0,72.0,72.0,73.0,73.0,74.0,75.0,75.0,76.0,77.0,78.0,79.0,80.0,81.0,81.0,83.0,83.0,84.0,84.0,85.0,85.0,86.0,86.0,88.0,91.0,92.0,93.0,93.0,94.0,94.0,94.0,95.0,96.0,97.0,97.0,100.0,103.0,103.0,104.0,103.0,105.0,104.0,104.0,106.0,109.0,109.0,111.0,0.0,0.0,0.0,0.0,0.0,0.0,55.0,55.0,55.0,55.0,55.0,56.0,56.0,55.0,55.0,54.0,55.0,55.0,55.0,54.0,54.0,54.0,55.0,55.0,56.0,56.0,56.0,56.0,56.0,57.0,57.0,57.0,56.0,55.0,55.0,57.0,54.0,54.0,0.0,0.0,0.0,0.0,0.0,0.0,0.0,0.0,51.0,50.0,50.0,50.0,50.0,49.0,49.0,49.0,48.0,48.0,48.0,48.0,48.0,48.0,48.0,48.0,47.0,47.0,47.0,47.0,47.0,47.0,46.0,46.0,46.0,47.0,47.0,47.0,47.0,46.0,47.0,48.0,48.0,48.0,48.0,49.0,49.0,49.0,49.0,49.0,49.0,49.0,49.0,50.0,49.0,50.0,50.0,50.0,50.0,50.0,50.0,50.0,50.0,50.0,50.0,50.0,50.0,50.0,50.0,50.0,50.0,50.0,51.0,51.0,51.0,51.0,52.0,52.0,52.0,52.0,52.0,52.0,52.0,52.0,52.0,52.0,53.0,53.0,53.0,54.0,54.0,56.0,0.0,0.0,0.0,0.0,0.0,0.0,0.0,118.0,118.0,118.0,118.0,118.0,117.0,117.0,117.0,117.0,118.0,118.0,118.0,117.0,119.0,119.0,117.0,205.0,204.0,204.0,198.0,198.0,198.0,197.0,197.0,197.0,197.0,196.0,196.0,196.0,196.0,191.0,191.0,191.0,186.0,191.0,186.0,187.0,187.0,187.0,187.0,188.0,188.0,189.0,189.0,189.0,189.0,190.0,190.0,191.0,186.0,187.0,187.0,188.0,184.0,184.0,184.0,180.0,181.0,177.0,178.0,179.0,180.0,176.0,177.0,177.0,178.0,178.0,179.0,175.0,176.0,176.0,177.0,177.0,178.0,178.0,183.0,179.0,179.0,179.0,176.0,176.0,173.0,174.0,174.0,174.0,171.0,172.0,172.0,173.0,173.0,174.0,175.0,175.0,176.0,0.0,0.0,0.0,0.0,0.0,0.0,0.0,0.0
56.0,56.0,55.0,54.0,54.0,53.0,54.0,54.0,54.0,54.0,55.0,54.0,54.0,55.0,56.0,57.0,57.0,58.0,58.0,59.0,59.0,59.0,60.0,62.0,63.0,63.0,63.0,64.0,65.0,66.0,67.0,67.0,67.0,68.0,68.0,69.0,69.0,71.0,72.0,73.0,74.0,74.0,75.0,74.0,76.0,78.0,78.0,79.0,80.0,80.0,82.0,83.0,84.0,83.0,84.0,85.0,85.0,86.0,87.0,89.0,91.0,92.0,93.0,93.0,94.0,94.0,94.0,95.0,97.0,97.0,98.0,100.0,103.0,102.0,104.0,103.0,105.0,104.0,104.0,105.0,109.0,109.0,110.0,0.0,0.0,0.0,0.0,0.0,0.0,0.0,0.0,0.0,55.0,56.0,56.0,56.0,56.0,55.0,55.0,55.0,55.0,55.0,54.0,54.0,55.0,55.0,54.0,56.0,56.0,57.0,57.0,56.0,57.0,57.0,57.0,56.0,56.0,210.0,54.0,55.0,54.0,55.0,0.0,0.0,0.0,0.0,0.0,0.0,0.0,0.0,50.0,50.0,49.0,50.0,49.0,49.0,49.0,48.0,48.0,48.0,48.0,48.0,48.0,48.0,48.0,47.0,47.0,47.0,47.0,47.0,47.0,47.0,46.0,46.0,47.0,47.0,47.0,46.0,47.0,47.0,47.0,48.0,48.0,49.0,48.0,48.0,48.0,49.0,49.0,49.0,49.0,49.0,49.0,50.0,50.0,50.0,50.0,50.0,50.0,50.0,50.0,50.0,50.0,50.0,50.0,50.0,50.0,50.0,50.0,50.0,50.0,51.0,51.0,51.0,51.0,52.0,52.0,52.0,52.0,52.0,52.0,52.0,52.0,52.0,52.0,53.0,53.0,54.0,54.0,55.0,56.0,0.0,0.0,0.0,0.0,0.0,0.0,121.0,120.0,120.0,120.0,120.0,118.0,117.0,117.0,117.0,119.0,118.0,118.0,118.0,117.0,119.0,119.0,116.0,116.0,204.0,199.0,198.0,203.0,198.0,197.0,197.0,202.0,197.0,197.0,197.0,197.0,196.0,196.0,191.0,191.0,186.0,191.0,187.0,192.0,187.0,188.0,188.0,188.0,188.0,189.0,189.0,189.0,190.0,190.0,191.0,191.0,186.0,187.0,187.0,188.0,184.0,184.0,185.0,181.0,177.0,178.0,178.0,179.0,180.0,176.0,177.0,177.0,178.0,178.0,179.0,175.0,176.0,176.0,177.0,177.0,178.0,178.0,182.0,179.0,179.0,180.0,176.0,176.0,173.0,174.0,174.0,175.0,172.0,172.0,172.0,173.0,173.0,174.0,175.0,175.0,176.0,0.0,0.0,0.0,0.0,0.0,0.0,0.0,0.0
56.0,56.0,55.0,54.0,54.0,54.0,54.0,54.0,55.0,55.0,55.0,54.0,55.0,55.0,57.0,58.0,57.0,58.0,58.0,59.0,60.0,60.0,60.0,62.0,63.0,63.0,63.0,64.0,65.0,66.0,67.0,67.0,68.0,68.0,69.0,69.0,69.0,70.0,72.0,73.0,74.0,75.0,75.0,76.0,76.0,77.0,78.0,79.0,80.0,81.0,82.0,83.0,82.0,83.0,84.0,85.0,85.0,86.0,87.0,89.0,91.0,90.0,93.0,93.0,92.0,94.0,93.0,95.0,97.0,97.0,98.0,99.0,101.0,102.0,104.0,103.0,105.0,104.0,106.0,107.0,109.0,111.0,110.0,0.0,0.0,0.0,0.0,0.0,0.0,0.0,0.0,0.0,0.0,56.0,56.0,56.0,56.0,55.0,55.0,55.0,55.0,55.0,55.0,55.0,55.0,55.0,55.0,57.0,57.0,56.0,210.0,210.0,210.0,210.0,209.0,209.0,210.0,210.0,0.0,0.0,0.0,0.0,0.0,0.0,0.0,0.0,0.0,0.0,0.0,0.0,50.0,49.0,49.0,49.0,49.0,48.0,49.0,48.0,48.0,48.0,48.0,48.0,48.0,48.0,48.0,47.0,47.0,47.0,47.0,47.0,47.0,47.0,46.0,47.0,47.0,47.0,47.0,46.0,47.0,47.0,47.0,48.0,48.0,48.0,48.0,48.0,49.0,49.0,49.0,49.0,50.0,49.0,49.0,50.0,50.0,50.0,50.0,50.0,50.0,50.0,50.0,50.0,50.0,50.0,50.0,50.0,51.0,50.0,51.0,51.0,51.0,51.0,51.0,52.0,52.0,52.0,52.0,51.0,52.0,52.0,52.0,51.0,52.0,52.0,52.0,53.0,54.0,54.0,54.0,55.0,56.0,0.0,0.0,0.0,0.0,0.0,0.0,120.0,120.0,120.0,120.0,120.0,118.0,117.0,117.0,119.0,119.0,118.0,118.0,118.0,118.0,117.0,117.0,117.0,116.0,204.0,204.0,204.0,203.0,198.0,198.0,197.0,197.0,197.0,192.0,192.0,192.0,192.0,191.0,191.0,187.0,187.0,187.0,187.0,188.0,188.0,188.0,188.0,189.0,189.0,189.0,189.0,190.0,190.0,191.0,186.0,187.0,187.0,187.0,188.0,184.0,184.0,185.0,185.0,181.0,178.0,178.0,179.0,179.0,180.0,176.0,177.0,177.0,178.0,179.0,179.0,175.0,176.0,177.0,177.0,178.0,178.0,178.0,183.0,183.0,179.0,180.0,176.0,176.0,173.0,174.0,175.0,172.0,172.0,172.0,172.0,173.0,173.0,174.0,174.0,175.0,176.0,0.0,0.0,0.0,0.0,0.0,0.0,0.0,0.0
57.0,56.0,55.0,55.0,54.0,54.0,54.0,54.0,55.0,55.0,55.0,55.0,55.0,56.0,57.0,57.0,57.0,58.0,59.0,60.0,60.0,60.0,61.0,62.0,62.0,64.0,64.0,64.0,65.0,66.0,67.0,68.0,68.0,68.0,68.0,69.0,69.0,70.0,73.0,74.0,74.0,75.0,75.0,75.0,75.0,76.0,78.0,79.0,79.0,81.0,82.0,81.0,82.0,83.0,84.0,85.0,85.0,86.0,87.0,89.0,90.0,90.0,92.0,93.0,92.0,93.0,93.0,94.0,97.0,98.0,98.0,99.0,101.0,102.0,104.0,103.0,105.0,104.0,108.0,109.0,109.0,111.0,113.0,117.0,0.0,0.0,0.0,0.0,0.0,0.0,0.0,0.0,0.0,56.0,56.0,57.0,56.0,56.0,56.0,55.0,55.0,55.0,55.0,55.0,56.0,57.0,57.0,204.0,204.0,204.0,210.0,210.0,210.0,209.0,209.0,209.0,216.0,209.0,210.0,0.0,0.0,0.0,0.0,0.0,0.0,0.0,0.0,0.0,0.0,0.0,0.0,50.0,49.0,49.0,49.0,48.0,48.0,48.0,48.0,48.0,47.0,48.0,48.0,48.0,48.0,47.0,47.0,47.0,46.0,46.0,46.0,46.0,47.0,47.0,47.0,47.0,47.0,47.0,47.0,47.0,47.0,48.0,48.0,48.0,48.0,48.0,49.0,48.0,49.0,49.0,49.0,50.0,50.0,49.0,50.0,50.0,50.0,50.0,50.0,50.0,50.0,50.0,50.0,50.0,51.0,51.0,51.0,51.0,51.0,51.0,51.0,51.0,51.0,51.0,51.0,51.0,52.0,52.0,51.0,51.0,51.0,51.0,52.0,52.0,53.0,53.0,54.0,55.0,54.0,55.0,55.0,0.0,0.0,0.0,0.0,0.0,0.0,120.0,120.0,120.0,120.0,120.0,118.0,117.0,117.0,117.0,117.0,118.0,118.0,118.0,117.0,117.0,117.0,117.0,116.0,116.0,204.0,204.0,204.0,198.0,198.0,198.0,198.0,197.0,197.0,197.0,192.0,192.0,192.0,192.0,187.0,187.0,187.0,187.0,188.0,188.0,184.0,189.0,189.0,189.0,190.0,190.0,190.0,190.0,191.0,186.0,187.0,187.0,188.0,188.0,184.0,185.0,185.0,186.0,182.0,178.0,178.0,175.0,175.0,176.0,177.0,177.0,178.0,178.0,178.0,179.0,176.0,180.0,177.0,181.0,178.0,178.0,182.0,183.0,183.0,180.0,180.0,176.0,177.0,173.0,174.0,175.0,171.0,172.0,172.0,172.0,173.0,174.0,174.0,175.0,176.0,176.0,0.0,0.0,0.0,0.0,0.0,0.0,0.0,0.0
57.0,56.0,56.0,55.0,55.0,54.0,54.0,54.0,54.0,54.0,56.0,55.0,55.0,56.0,56.0,57.0,58.0,58.0,59.0,60.0,61.0,61.0,61.0,62.0,63.0,64.0,64.0,65.0,66.0,66.0,67.0,67.0,68.0,69.0,69.0,69.0,69.0,70.0,73.0,73.0,73.0,74.0,75.0,75.0,76.0,77.0,78.0,79.0,80.0,81.0,82.0,81.0,82.0,83.0,84.0,85.0,85.0,87.0,88.0,89.0,90.0,90.0,91.0,92.0,92.0,93.0,93.0,94.0,97.0,98.0,98.0,99.0,102.0,102.0,103.0,105.0,105.0,106.0,108.0,109.0,111.0,113.0,113.0,115.0,117.0,0.0,0.0,213.0,213.0,213.0,213.0,219.0,213.0,213.0,214.0,208.0,208.0,208.0,55.0,55.0,55.0,55.0,55.0,55.0,57.0,57.0,204.0,204.0,204.0,204.0,210.0,204.0,210.0,209.0,209.0,209.0,216.0,209.0,210.0,210.0,210.0,0.0,0.0,0.0,0.0,0.0,0.0,0.0,0.0,0.0,0.0,0.0,49.0,49.0,48.0,48.0,48.0,48.0,48.0,47.0,47.0,47.0,47.0,48.0,47.0,47.0,47.0,47.0,46.0,46.0,46.0,46.0,47.0,47.0,47.0,47.0,47.0,47.0,47.0,46.0,48.0,48.0,48.0,48.0,48.0,48.0,48.0,49.0,49.0,49.0,49.0,49.0,49.0,50.0,50.0,50.0,50.0,50.0,50.0,50.0,50.0,50.0,50.0,50.0,51.0,51.0,51.0,51.0,51.0,51.0,51.0,51.0,51.0,51.0,51.0,51.0,51.0,51.0,52.0,52.0,52.0,51.0,52.0,52.0,53.0,53.0,54.0,55.0,55.0,55.0,55.0,0.0,0.0,0.0,0.0,0.0,0.0,120.0,120.0,120.0,120.0,120.0,120.0,117.0,117.0,117.0,116.0,118.0,118.0,118.0,117.0,117.0,117.0,116.0,116.0,116.0,199.0,199.0,204.0,198.0,198.0,198.0,198.0,198.0,197.0,192.0,192.0,192.0,192.0,187.0,187.0,187.0,187.0,188.0,188.0,188.0,189.0,189.0,189.0,189.0,190.0,190.0,191.0,191.0,191.0,187.0,187.0,188.0,188.0,188.0,184.0,185.0,181.0,181.0,178.0,178.0,179.0,175.0,176.0,176.0,177.0,177.0,178.0,178.0,179.0,179.0,176.0,176.0,181.0,181.0,177.0,178.0,178.0,183.0,179.0,179.0,176.0,176.0,176.0,173.0,173.0,174.0,171.0,172.0,172.0,173.0,173.0,174.0,174.0,175.0,172.0,176.0,0.0,0.0,0.0,0.0,0.0,0.0,0.0,0.0
56.0,56.0,56.0,55.0,55.0,55.0,54.0,54.0,54.0,54.0,55.0,55.0,55.0,56.0,56.0,57.0,58.0,58.0,60.0,60.0,60.0,61.0,61.0,62.0,62.0,64.0,64.0,65.0,65.0,66.0,66.0,67.0,68.0,69.0,70.0,70.0,69.0,71.0,73.0,73.0,73.0,74.0,75.0,75.0,76.0,77.0,78.0,79.0,80.0,81.0,82.0,82.0,82.0,82.0,83.0,84.0,85.0,87.0,88.0,89.0,90.0,90.0,91.0,92.0,92.0,93.0,94.0,94.0,97.0,98.0,98.0,99.0,100.0,102.0,103.0,105.0,106.0,108.0,108.0,109.0,111.0,113.0,113.0,114.0,116.0,0.0,0.0,213.0,219.0,219.0,213.0,219.0,213.0,214.0,208.0,208.0,208.0,208.0,215.0,208.0,55.0,55.0,209.0,210.0,210.0,204.0,205.0,204.0,204.0,204.0,210.0,210.0,210.0,209.0,209.0,209.0,216.0,210.0,209.0,210.0,210.0,0.0,0.0,0.0,0.0,0.0,0.0,0.0,0.0,0.0,0.0,0.0,50.0,49.0,48.0,48.0,48.0,48.0,48.0,47.0,47.0,47.0,47.0,47.0,47.0,47.0,47.0,47.0,47.0,46.0,46.0,46.0,47.0,47.0,47.0,47.0,46.0,47.0,47.0,47.0,48.0,48.0,48.0,48.0,48.0,48.0,49.0,49.0,49.0,49.0,49.0,49.0,50.0,50.0,50.0,50.0,50.0,50.0,50.0,50.0,50.0,50.0,50.0,50.0,50.0,50.0,51.0,51.0,51.0,51.0,51.0,51.0,51.0,51.0,51.0,51.0,51.0,51.0,51.0,51.0,52.0,52.0,52.0,52.0,53.0,53.0,54.0,55.0,55.0,55.0,55.0,0.0,0.0,0.0,0.0,0.0,0.0,0.0,120.0,120.0,120.0,120.0,120.0,120.0,119.0,117.0,116.0,118.0,118.0,118.0,117.0,117.0,117.0,116.0,116.0,116.0,116.0,199.0,204.0,198.0,198.0,198.0,198.0,198.0,193.0,193.0,193.0,193.0,193.0,188.0,187.0,188.0,188.0,188.0,188.0,189.0,189.0,189.0,190.0,190.0,190.0,191.0,186.0,187.0,187.0,187.0,187.0,188.0,184.0,184.0,185.0,181.0,181.0,178.0,178.0,179.0,179.0,176.0,176.0,177.0,177.0,177.0,178.0,178.0,179.0,179.0,176.0,176.0,177.0,177.0,178.0,178.0,178.0,183.0,179.0,175.0,176.0,176.0,173.0,173.0,173.0,174.0,171.0,171.0,172.0,173.0,173.0,174.0,171.0,171.0,172.0,173.0,0.0,0.0,0.0,0.0,0.0,0.0,0.0,0.0
56.0,56.0,56.0,56.0,55.0,55.0,54.0,54.0,54.0,54.0,55.0,56.0,56.0,56.0,56.0,57.0,58.0,59.0,60.0,60.0,60.0,61.0,62.0,62.0,62.0,64.0,63.0,63.0,65.0,66.0,67.0,67.0,67.0,68.0,69.0,70.0,70.0,70.0,72.0,74.0,73.0,74.0,75.0,75.0,76.0,77.0,78.0,79.0,80.0,81.0,82.0,82.0,82.0,82.0,83.0,84.0,85.0,87.0,88.0,89.0,90.0,90.0,91.0,92.0,93.0,93.0,94.0,96.0,97.0,98.0,97.0,99.0,100.0,102.0,103.0,105.0,106.0,108.0,110.0,109.0,109.0,113.0,115.0,117.0,117.0,117.0,116.0,220.0,219.0,219.0,213.0,219.0,213.0,208.0,208.0,208.0,208.0,208.0,208.0,208.0,209.0,209.0,209.0,210.0,210.0,204.0,211.0,211.0,211.0,210.0,210.0,210.0,210.0,209.0,209.0,209.0,209.0,209.0,209.0,210.0,210.0,0.0,0.0,0.0,0.0,0.0,0.0,0.0,0.0,0.0,0.0,0.0,0.0,0.0,48.0,48.0,48.0,48.0,48.0,47.0,47.0,47.0,47.0,47.0,47.0,47.0,46.0,46.0,46.0,46.0,46.0,46.0,47.0,47.0,47.0,46.0,47.0,47.0,47.0,47.0,48.0,48.0,48.0,48.0,48.0,49.0,48.0,48.0,49.0,49.0,49.0,49.0,50.0,50.0,50.0,50.0,50.0,50.0,50.0,50.0,50.0,50.0,50.0,50.0,50.0,51.0,51.0,51.0,51.0,51.0,51.0,51.0,51.0,51.0,51.0,51.0,51.0,51.0,51.0,51.0,51.0,52.0,52.0,52.0,54.0,53.0,54.0,55.0,55.0,55.0,55.0,0.0,0.0,0.0,0.0,0.0,0.0,0.0,120.0,120.0,120.0,120.0,119.0,119.0,119.0,119.0,117.0,118.0,118.0,116.0,117.0,117.0,115.0,114.0,116.0,114.0,204.0,204.0,204.0,198.0,199.0,199.0,198.0,198.0,193.0,193.0,193.0,193.0,193.0,188.0,188.0,188.0,188.0,188.0,189.0,189.0,185.0,190.0,190.0,185.0,186.0,186.0,186.0,187.0,187.0,187.0,188.0,184.0,184.0,185.0,181.0,177.0,177.0,178.0,179.0,179.0,175.0,176.0,176.0,177.0,177.0,177.0,178.0,179.0,179.0,179.0,180.0,180.0,181.0,177.0,178.0,178.0,178.0,183.0,179.0,176.0,176.0,176.0,176.0,173.0,173.0,174.0,171.0,171.0,172.0,172.0,173.0,174.0,174.0,171.0,172.0,176.0,0.0,0.0,0.0,0.0,0.0,0.0,0.0,0.0
57.0,57.0,56.0,56.0,55.0,54.0,54.0,54.0,54.0,55.0,55.0,56.0,56.0,56.0,57.0,57.0,58.0,59.0,60.0,61.0,60.0,61.0,62.0,62.0,62.0,64.0,63.0,65.0,65.0,65.0,66.0,67.0,68.0,68.0,69.0,69.0,70.0,70.0,72.0,74.0,74.0,74.0,75.0,75.0,76.0,77.0,78.0,79.0,80.0,81.0,81.0,81.0,81.0,82.0,83.0,84.0,84.0,87.0,88.0,89.0,90.0,91.0,92.0,92.0,93.0,93.0,94.0,95.0,97.0,98.0,99.0,99.0,100.0,101.0,103.0,105.0,106.0,108.0,109.0,109.0,109.0,113.0,115.0,117.0,117.0,116.0,116.0,119.0,219.0,220.0,213.0,219.0,213.0,207.0,208.0,208.0,208.0,208.0,208.0,209.0,209.0,209.0,209.0,210.0,210.0,210.0,210.0,211.0,211.0,210.0,210.0,210.0,210.0,209.0,209.0,209.0,210.0,209.0,209.0,216.0,210.0,216.0,0.0,0.0,0.0,0.0,0.0,0.0,0.0,0.0,0.0,0.0,0.0,0.0,48.0,47.0,48.0,48.0,48.0,47.0,47.0,47.0,47.0,47.0,47.0,46.0,46.0,46.0,46.0,46.0,46.0,46.0,46.0,46.0,46.0,46.0,47.0,47.0,47.0,46.0,48.0,48.0,48.0,48.0,48.0,48.0,48.0,49.0,49.0,49.0,49.0,50.0,50.0,49.0,50.0,50.0,50.0,50.0,50.0,50.0,50.0,50.0,50.0,50.0,50.0,51.0,51.0,51.0,51.0,51.0,51.0,51.0,51.0,51.0,51.0,51.0,51.0,51.0,51.0,51.0,51.0,52.0,52.0,53.0,54.0,53.0,54.0,55.0,55.0,55.0,55.0,0.0,0.0,0.0,0.0,0.0,0.0,0.0,0.0,120.0,120.0,120.0,119.0,119.0,119.0,119.0,116.0,116.0,118.0,115.0,117.0,115.0,115.0,114.0,114.0,114.0,204.0,204.0,204.0,199.0,199.0,199.0,193.0,194.0,193.0,193.0,193.0,193.0,193.0,188.0,188.0,188.0,189.0,189.0,189.0,190.0,185.0,190.0,186.0,186.0,186.0,187.0,187.0,187.0,187.0,184.0,184.0,184.0,180.0,181.0,177.0,177.0,178.0,178.0,179.0,179.0,175.0,176.0,177.0,177.0,177.0,178.0,178.0,179.0,179.0,179.0,180.0,176.0,177.0,178.0,178.0,178.0,179.0,183.0,179.0,176.0,176.0,172.0,176.0,173.0,173.0,174.0,171.0,171.0,172.0,173.0,173.0,174.0,175.0,172.0,172.0,173.0,0.0,0.0,0.0,0.0,0.0,0.0,0.0,0.0
57.0,57.0,56.0,56.0,55.0,54.0,54.0,54.0,54.0,54.0,54.0,56.0,56.0,56.0,57.0,57.0,58.0,60.0,60.0,61.0,61.0,61.0,62.0,62.0,63.0,63.0,63.0,63.0,65.0,66.0,66.0,67.0,67.0,68.0,69.0,69.0,70.0,71.0,72.0,74.0,74.0,74.0,75.0,75.0,75.0,75.0,77.0,79.0,80.0,81.0,82.0,81.0,81.0,82.0,83.0,82.0,86.0,88.0,89.0,89.0,90.0,89.0,90.0,92.0,93.0,94.0,94.0,95.0,97.0,98.0,99.0,98.0,100.0,101.0,103.0,104.0,106.0,110.0,109.0,109.0,111.0,115.0,115.0,117.0,117.0,117.0,116.0,220.0,226.0,220.0,213.0,213.0,213.0,207.0,208.0,208.0,208.0,208.0,208.0,203.0,203.0,204.0,210.0,210.0,210.0,211.0,211.0,211.0,211.0,210.0,210.0,210.0,210.0,209.0,209.0,209.0,215.0,216.0,210.0,216.0,216.0,216.0,0.0,0.0,0.0,0.0,0.0,0.0,0.0,0.0,0.0,0.0,0.0,0.0,48.0,47.0,48.0,48.0,48.0,47.0,47.0,47.0,47.0,47.0,47.0,47.0,46.0,46.0,46.0,46.0,46.0,46.0,46.0,46.0,46.0,46.0,46.0,47.0,46.0,46.0,48.0,48.0,48.0,48.0,48.0,48.0,49.0,49.0,49.0,49.0,50.0,49.0,49.0,50.0,50.0,50.0,50.0,50.0,50.0,50.0,50.0,50.0,50.0,50.0,50.0,50.0,51.0,51.0,51.0,51.0,51.0,51.0,51.0,51.0,51.0,51.0,51.0,51.0,51.0,51.0,52.0,52.0,53.0,53.0,54.0,53.0,54.0,55.0,55.0,55.0,55.0,56.0,0.0,0.0,0.0,0.0,0.0,0.0,0.0,122.0,120.0,119.0,120.0,119.0,119.0,119.0,116.0,116.0,118.0,117.0,117.0,117.0,115.0,116.0,114.0,114.0,114.0,194.0,199.0,199.0,199.0,194.0,193.0,194.0,193.0,193.0,193.0,194.0,189.0,189.0,189.0,189.0,189.0,189.0,190.0,185.0,186.0,191.0,186.0,187.0,187.0,187.0,188.0,188.0,188.0,184.0,184.0,185.0,180.0,181.0,181.0,178.0,178.0,178.0,179.0,175.0,176.0,177.0,177.0,177.0,178.0,178.0,179.0,179.0,179.0,176.0,176.0,177.0,177.0,178.0,178.0,178.0,179.0,183.0,179.0,180.0,176.0,176.0,176.0,173.0,173.0,174.0,171.0,171.0,173.0,173.0,174.0,174.0,175.0,175.0,176.0,173.0,0.0,0.0,0.0,0.0,0.0,0.0,0.0,0.0
57.0,57.0,57.0,56.0,55.0,55.0,55.0,54.0,54.0,54.0,54.0,56.0,56.0,56.0,57.0,58.0,59.0,60.0,60.0,61.0,61.0,61.0,61.0,62.0,62.0,63.0,63.0,63.0,64.0,66.0,67.0,66.0,67.0,68.0,69.0,69.0,70.0,71.0,71.0,73.0,74.0,74.0,75.0,75.0,75.0,76.0,77.0,78.0,80.0,81.0,82.0,81.0,82.0,82.0,83.0,83.0,87.0,88.0,89.0,90.0,90.0,89.0,90.0,92.0,93.0,94.0,94.0,95.0,96.0,97.0,98.0,98.0,100.0,101.0,103.0,106.0,108.0,110.0,109.0,111.0,111.0,115.0,117.0,117.0,117.0,117.0,116.0,226.0,227.0,226.0,220.0,214.0,214.0,208.0,208.0,208.0,208.0,208.0,208.0,208.0,209.0,209.0,209.0,210.0,210.0,210.0,210.0,211.0,210.0,210.0,210.0,210.0,209.0,210.0,209.0,209.0,215.0,215.0,216.0,215.0,216.0,0.0,0.0,0.0,0.0,0.0,0.0,0.0,0.0,0.0,0.0,0.0,0.0,0.0,48.0,49.0,48.0,48.0,48.0,47.0,47.0,47.0,47.0,47.0,47.0,46.0,46.0,46.0,46.0,46.0,46.0,46.0,46.0,46.0,46.0,46.0,47.0,47.0,46.0,47.0,48.0,48.0,48.0,48.0,48.0,48.0,49.0,49.0,49.0,50.0,49.0,49.0,50.0,50.0,50.0,50.0,50.0,50.0,50.0,50.0,50.0,50.0,50.0,50.0,50.0,50.0,50.0,51.0,51.0,51.0,51.0,51.0,51.0,51.0,51.0,51.0,51.0,51.0,51.0,51.0,52.0,52.0,53.0,53.0,53.0,53.0,54.0,55.0,55.0,55.0,55.0,0.0,0.0,0.0,0.0,0.0,0.0,0.0,0.0,0.0,120.0,119.0,119.0,119.0,119.0,116.0,116.0,116.0,116.0,115.0,117.0,115.0,115.0,116.0,116.0,114.0,204.0,199.0,199.0,194.0,194.0,194.0,194.0,194.0,194.0,189.0,189.0,189.0,189.0,189.0,189.0,189.0,189.0,190.0,190.0,186.0,186.0,186.0,186.0,187.0,187.0,188.0,188.0,188.0,184.0,184.0,180.0,181.0,181.0,181.0,178.0,178.0,178.0,179.0,175.0,176.0,176.0,177.0,177.0,178.0,178.0,178.0,179.0,179.0,176.0,176.0,176.0,177.0,178.0,178.0,178.0,178.0,179.0,179.0,179.0,180.0,176.0,173.0,173.0,173.0,173.0,173.0,171.0,171.0,173.0,173.0,174.0,174.0,175.0,175.0,172.0,173.0,0.0,0.0,0.0,0.0,0.0,0.0,0.0,0.0
57.0,57.0,57.0,56.0,55.0,55.0,55.0,55.0,54.0,54.0,54.0,55.0,56.0,55.0,57.0,58.0,59.0,59.0,61.0,61.0,61.0,62.0,62.0,62.0,62.0,63.0,64.0,64.0,65.0,66.0,66.0,67.0,67.0,67.0,69.0,69.0,70.0,71.0,73.0,73.0,73.0,75.0,74.0,75.0,75.0,76.0,79.0,79.0,80.0,81.0,82.0,81.0,82.0,82.0,83.0,84.0,87.0,88.0,89.0,90.0,90.0,91.0,92.0,93.0,93.0,94.0,95.0,95.0,96.0,97.0,98.0,98.0,100.0,101.0,103.0,104.0,108.0,109.0,109.0,111.0,111.0,115.0,115.0,117.0,117.0,117.0,116.0,117.0,227.0,220.0,214.0,214.0,208.0,208.0,208.0,208.0,203.0,208.0,209.0,209.0,209.0,203.0,210.0,210.0,210.0,204.0,210.0,204.0,210.0,210.0,210.0,210.0,209.0,209.0,209.0,209.0,209.0,209.0,209.0,215.0,210.0,216.0,0.0,0.0,0.0,0.0,0.0,0.0,0.0,0.0,0.0,0.0,0.0,0.0,48.0,48.0,48.0,47.0,47.0,47.0,47.0,46.0,46.0,46.0,47.0,46.0,46.0,46.0,46.0,46.0,46.0,46.0,46.0,46.0,46.0,47.0,47.0,46.0,47.0,47.0,48.0,48.0,48.0,48.0,48.0,49.0,49.0,49.0,49.0,49.0,49.0,49.0,50.0,50.0,50.0,50.0,50.0,50.0,50.0,50.0,50.0,50.0,50.0,50.0,50.0,50.0,50.0,50.0,50.0,50.0,51.0,51.0,51.0,51.0,51.0,51.0,51.0,51.0,51.0,51.0,53.0,53.0,53.0,54.0,54.0,53.0,54.0,54.0,55.0,55.0,55.0,0.0,0.0,0.0,0.0,0.0,0.0,0.0,0.0,119.0,119.0,119.0,119.0,119.0,118.0,116.0,116.0,116.0,118.0,117.0,117.0,115.0,115.0,116.0,114.0,114.0,205.0,194.0,200.0,194.0,194.0,194.0,194.0,189.0,194.0,189.0,189.0,190.0,189.0,190.0,190.0,190.0,190.0,190.0,190.0,186.0,186.0,186.0,187.0,187.0,188.0,188.0,188.0,189.0,185.0,185.0,181.0,181.0,181.0,182.0,178.0,178.0,179.0,175.0,176.0,176.0,177.0,177.0,178.0,178.0,178.0,179.0,179.0,175.0,176.0,176.0,177.0,177.0,178.0,178.0,178.0,179.0,179.0,183.0,180.0,180.0,176.0,176.0,176.0,173.0,174.0,174.0,170.0,172.0,172.0,172.0,173.0,174.0,175.0,175.0,176.0,173.0,0.0,0.0,0.0,0.0,0.0,0.0,0.0,0.0
57.0,57.0,56.0,55.0,56.0,54.0,54.0,54.0,54.0,54.0,54.0,55.0,55.0,56.0,57.0,58.0,58.0,60.0,61.0,61.0,61.0,62.0,62.0,62.0,62.0,63.0,64.0,64.0,65.0,65.0,66.0,66.0,68.0,67.0,69.0,69.0,70.0,71.0,72.0,73.0,73.0,74.0,75.0,75.0,75.0,77.0,79.0,79.0,80.0,81.0,82.0,81.0,82.0,82.0,83.0,84.0,87.0,88.0,89.0,88.0,89.0,89.0,92.0,93.0,93.0,94.0,95.0,95.0,96.0,97.0,98.0,100.0,101.0,103.0,104.0,104.0,106.0,109.0,109.0,111.0,111.0,115.0,117.0,117.0,117.0,116.0,117.0,117.0,220.0,214.0,214.0,208.0,208.0,208.0,209.0,203.0,203.0,203.0,204.0,203.0,204.0,204.0,210.0,210.0,210.0,210.0,211.0,210.0,210.0,210.0,210.0,210.0,210.0,209.0,209.0,210.0,210.0,209.0,210.0,210.0,209.0,209.0,0.0,0.0,0.0,0.0,0.0,0.0,0.0,0.0,0.0,0.0,0.0,48.0,48.0,48.0,48.0,47.0,47.0,47.0,47.0,47.0,47.0,46.0,46.0,46.0,46.0,46.0,46.0,46.0,46.0,46.0,46.0,46.0,46.0,47.0,47.0,46.0,46.0,46.0,48.0,48.0,48.0,48.0,48.0,49.0,49.0,49.0,49.0,49.0,49.0,50.0,50.0,50.0,50.0,50.0,50.0,50.0,49.0,50.0,50.0,50.0,50.0,50.0,50.0,50.0,50.0,50.0,50.0,51.0,50.0,50.0,51.0,51.0,51.0,51.0,51.0,51.0,51.0,52.0,53.0,53.0,53.0,54.0,54.0,54.0,54.0,54.0,55.0,55.0,0.0,0.0,0.0,0.0,0.0,0.0,0.0,0.0,0.0,119.0,119.0,119.0,119.0,119.0,116.0,116.0,116.0,118.0,118.0,117.0,117.0,115.0,115.0,115.0,114.0,114.0,205.0,200.0,195.0,194.0,194.0,190.0,190.0,190.0,190.0,190.0,190.0,190.0,190.0,190.0,190.0,190.0,190.0,186.0,186.0,186.0,187.0,187.0,187.0,188.0,188.0,189.0,189.0,185.0,185.0,181.0,181.0,178.0,178.0,178.0,178.0,179.0,179.0,176.0,176.0,176.0,177.0,178.0,178.0,178.0,179.0,179.0,180.0,176.0,176.0,177.0,177.0,177.0,178.0,178.0,178.0,178.0,179.0,183.0,183.0,180.0,176.0,176.0,176.0,173.0,174.0,174.0,171.0,175.0,173.0,173.0,173.0,174.0,175.0,175.0,172.0,173.0,0.0,0.0,0.0,0.0,0.0,0.0,0.0,0.0
57.0,57.0,56.0,56.0,55.0,54.0,55.0,54.0,55.0,54.0,54.0,55.0,55.0,56.0,56.0,58.0,58.0,59.0,60.0,61.0,61.0,62.0,62.0,62.0,62.0,63.0,64.0,64.0,65.0,65.0,65.0,66.0,67.0,68.0,69.0,70.0,71.0,71.0,72.0,73.0,73.0,74.0,75.0,75.0,76.0,77.0,78.0,78.0,80.0,80.0,82.0,81.0,82.0,82.0,84.0,84.0,85.0,88.0,89.0,88.0,90.0,89.0,92.0,93.0,94.0,94.0,95.0,96.0,96.0,97.0,98.0,100.0,101.0,101.0,102.0,104.0,106.0,109.0,109.0,111.0,110.0,112.0,114.0,117.0,117.0,117.0,117.0,117.0,214.0,215.0,208.0,208.0,208.0,209.0,209.0,203.0,203.0,204.0,204.0,204.0,204.0,204.0,210.0,211.0,210.0,211.0,211.0,210.0,211.0,210.0,210.0,210.0,210.0,210.0,209.0,209.0,210.0,210.0,210.0,209.0,209.0,0.0,0.0,0.0,0.0,0.0,0.0,0.0,0.0,0.0,0.0,0.0,0.0,49.0,48.0,49.0,49.0,47.0,47.0,46.0,47.0,46.0,46.0,47.0,46.0,45.0,46.0,46.0,46.0,46.0,46.0,46.0,46.0,46.0,46.0,47.0,47.0,46.0,47.0,46.0,48.0,48.0,48.0,48.0,49.0,49.0,49.0,49.0,49.0,49.0,50.0,49.0,50.0,50.0,50.0,50.0,50.0,49.0,50.0,50.0,50.0,50.0,50.0,50.0,50.0,50.0,50.0,50.0,50.0,50.0,51.0,50.0,51.0,51.0,51.0,51.0,51.0,51.0,51.0,52.0,53.0,53.0,53.0,54.0,54.0,54.0,54.0,54.0,54.0,54.0,0.0,0.0,0.0,0.0,0.0,0.0,0.0,0.0,0.0,119.0,119.0,119.0,119.0,118.0,118.0,118.0,118.0,118.0,118.0,117.0,117.0,115.0,115.0,115.0,114.0,114.0,114.0,200.0,200.0,195.0,195.0,190.0,190.0,190.0,190.0,190.0,190.0,190.0,190.0,190.0,190.0,191.0,186.0,186.0,186.0,187.0,187.0,187.0,188.0,188.0,188.0,189.0,189.0,185.0,185.0,182.0,182.0,178.0,178.0,179.0,179.0,179.0,180.0,176.0,176.0,177.0,178.0,178.0,178.0,179.0,179.0,180.0,176.0,176.0,177.0,177.0,177.0,178.0,178.0,178.0,178.0,179.0,179.0,183.0,183.0,180.0,176.0,176.0,176.0,173.0,174.0,174.0,175.0,175.0,176.0,173.0,173.0,175.0,175.0,175.0,176.0,176.0,0.0,0.0,0.0,0.0,0.0,0.0,0.0,0.0
57.0,57.0,56.0,56.0,55.0,55.0,55.0,54.0,55.0,54.0,54.0,54.0,56.0,56.0,57.0,58.0,59.0,59.0,61.0,62.0,62.0,62.0,62.0,62.0,63.0,63.0,64.0,64.0,65.0,66.0,66.0,66.0,67.0,68.0,69.0,70.0,71.0,70.0,71.0,73.0,73.0,74.0,75.0,76.0,75.0,76.0,77.0,78.0,80.0,81.0,82.0,81.0,82.0,83.0,84.0,84.0,85.0,88.0,89.0,88.0,89.0,90.0,92.0,93.0,94.0,94.0,96.0,96.0,97.0,99.0,98.0,98.0,99.0,101.0,102.0,104.0,104.0,107.0,109.0,111.0,110.0,114.0,114.0,117.0,117.0,117.0,117.0,117.0,215.0,215.0,208.0,208.0,209.0,209.0,209.0,203.0,203.0,204.0,204.0,204.0,204.0,204.0,205.0,211.0,211.0,210.0,211.0,210.0,210.0,210.0,210.0,204.0,204.0,210.0,210.0,210.0,210.0,210.0,216.0,216.0,0.0,0.0,0.0,0.0,0.0,0.0,0.0,0.0,0.0,0.0,0.0,0.0,0.0,48.0,49.0,49.0,49.0,48.0,48.0,47.0,47.0,47.0,47.0,46.0,45.0,46.0,46.0,46.0,46.0,45.0,46.0,46.0,46.0,46.0,46.0,47.0,46.0,46.0,46.0,46.0,48.0,48.0,48.0,48.0,49.0,48.0,49.0,49.0,49.0,50.0,49.0,50.0,50.0,49.0,50.0,50.0,50.0,50.0,50.0,50.0,50.0,50.0,50.0,50.0,50.0,50.0,50.0,50.0,50.0,50.0,50.0,51.0,51.0,51.0,51.0,51.0,51.0,51.0,51.0,52.0,53.0,53.0,53.0,54.0,54.0,54.0,54.0,54.0,54.0,54.0,0.0,0.0,0.0,0.0,0.0,0.0,0.0,0.0,0.0,0.0,119.0,119.0,119.0,118.0,118.0,116.0,116.0,116.0,117.0,117.0,117.0,115.0,115.0,115.0,114.0,114.0,205.0,200.0,200.0,195.0,195.0,190.0,190.0,190.0,190.0,190.0,190.0,190.0,190.0,191.0,191.0,186.0,186.0,187.0,187.0,187.0,188.0,188.0,188.0,188.0,184.0,189.0,185.0,186.0,182.0,182.0,178.0,178.0,179.0,179.0,180.0,180.0,180.0,181.0,177.0,178.0,178.0,178.0,179.0,179.0,180.0,180.0,180.0,177.0,177.0,177.0,174.0,178.0,178.0,178.0,178.0,179.0,179.0,183.0,183.0,180.0,180.0,177.0,177.0,173.0,174.0,174.0,175.0,176.0,176.0,177.0,174.0,175.0,175.0,175.0,176.0,176.0,0.0,0.0,0.0,0.0,0.0,0.0,0.0,0.0
57.0,57.0,56.0,55.0,55.0,55.0,55.0,55.0,54.0,54.0,55.0,54.0,56.0,56.0,56.0,58.0,59.0,60.0,60.0,62.0,62.0,63.0,62.0,62.0,64.0,64.0,64.0,65.0,65.0,66.0,67.0,67.0,67.0,68.0,68.0,69.0,70.0,71.0,71.0,72.0,73.0,74.0,75.0,76.0,75.0,76.0,77.0,78.0,79.0,80.0,82.0,81.0,82.0,83.0,84.0,84.0,85.0,86.0,89.0,88.0,89.0,89.0,91.0,93.0,94.0,95.0,96.0,96.0,97.0,99.0,98.0,98.0,99.0,101.0,104.0,104.0,106.0,107.0,109.0,111.0,110.0,112.0,114.0,115.0,117.0,115.0,117.0,208.0,209.0,208.0,209.0,209.0,209.0,209.0,209.0,204.0,204.0,204.0,204.0,204.0,205.0,205.0,205.0,211.0,211.0,211.0,211.0,210.0,211.0,210.0,210.0,204.0,204.0,210.0,210.0,210.0,210.0,216.0,216.0,216.0,216.0,215.0,0.0,0.0,0.0,0.0,0.0,0.0,0.0,0.0,0.0,0.0,0.0,48.0,48.0,49.0,48.0,48.0,48.0,47.0,46.0,47.0,47.0,46.0,45.0,45.0,46.0,46.0,45.0,45.0,46.0,46.0,46.0,46.0,46.0,47.0,46.0,46.0,46.0,46.0,47.0,48.0,48.0,48.0,48.0,49.0,49.0,49.0,49.0,49.0,49.0,49.0,49.0,50.0,49.0,50.0,50.0,50.0,50.0,50.0,50.0,50.0,50.0,50.0,50.0,50.0,50.0,50.0,50.0,50.0,50.0,50.0,51.0,51.0,51.0,51.0,51.0,51.0,51.0,52.0,53.0,53.0,53.0,54.0,54.0,54.0,54.0,54.0,54.0,54.0,0.0,0.0,0.0,0.0,0.0,0.0,0.0,0.0,0.0,0.0,119.0,119.0,118.0,118.0,118.0,118.0,118.0,118.0,117.0,117.0,117.0,115.0,115.0,115.0,115.0,114.0,205.0,200.0,200.0,195.0,195.0,190.0,190.0,190.0,190.0,190.0,190.0,191.0,191.0,191.0,186.0,186.0,187.0,187.0,187.0,188.0,188.0,188.0,188.0,189.0,189.0,190.0,190.0,186.0,182.0,182.0,179.0,179.0,179.0,179.0,180.0,180.0,176.0,177.0,177.0,178.0,178.0,179.0,179.0,179.0,180.0,180.0,177.0,177.0,177.0,177.0,174.0,174.0,178.0,178.0,179.0,179.0,179.0,183.0,183.0,180.0,180.0,177.0,177.0,174.0,175.0,175.0,175.0,176.0,176.0,173.0,174.0,175.0,175.0,176.0,176.0,173.0,0.0,0.0,0.0,0.0,0.0,0.0,0.0,0.0
57.0,57.0,56.0,55.0,56.0,55.0,55.0,55.0,55.0,55.0,55.0,55.0,56.0,56.0,56.0,58.0,59.0,59.0,60.0,62.0,62.0,63.0,63.0,63.0,64.0,64.0,65.0,65.0,65.0,65.0,67.0,67.0,68.0,68.0,70.0,69.0,70.0,71.0,71.0,72.0,73.0,73.0,75.0,76.0,76.0,76.0,78.0,77.0,79.0,80.0,82.0,81.0,82.0,83.0,84.0,84.0,85.0,86.0,89.0,88.0,89.0,89.0,90.0,93.0,94.0,93.0,96.0,96.0,97.0,97.0,98.0,100.0,101.0,102.0,104.0,104.0,106.0,107.0,109.0,109.0,111.0,113.0,115.0,115.0,115.0,115.0,115.0,208.0,209.0,209.0,209.0,209.0,209.0,209.0,203.0,204.0,204.0,204.0,205.0,205.0,205.0,205.0,205.0,205.0,211.0,211.0,211.0,211.0,210.0,210.0,205.0,204.0,204.0,210.0,210.0,210.0,210.0,210.0,216.0,216.0,216.0,215.0,215.0,0.0,0.0,0.0,0.0,0.0,0.0,0.0,0.0,0.0,0.0,48.0,48.0,48.0,48.0,47.0,47.0,47.0,47.0,46.0,47.0,46.0,45.0,45.0,46.0,45.0,45.0,46.0,46.0,46.0,46.0,46.0,46.0,46.0,47.0,46.0,46.0,46.0,47.0,48.0,48.0,48.0,48.0,49.0,49.0,49.0,49.0,49.0,49.0,49.0,50.0,49.0,49.0,50.0,50.0,50.0,50.0,50.0,50.0,50.0,50.0,50.0,50.0,50.0,50.0,51.0,51.0,51.0,50.0,50.0,51.0,51.0,51.0,51.0,51.0,51.0,51.0,52.0,53.0,53.0,53.0,54.0,54.0,54.0,54.0,54.0,54.0,54.0,55.0,0.0,0.0,0.0,0.0,0.0,0.0,0.0,0.0,0.0,119.0,118.0,118.0,118.0,118.0,116.0,116.0,116.0,115.0,117.0,117.0,117.0,115.0,115.0,114.0,114.0,200.0,200.0,200.0,195.0,190.0,190.0,190.0,191.0,191.0,191.0,191.0,191.0,191.0,186.0,187.0,187.0,187.0,187.0,188.0,188.0,188.0,188.0,189.0,189.0,190.0,190.0,190.0,186.0,182.0,183.0,179.0,179.0,180.0,180.0,180.0,181.0,177.0,177.0,178.0,178.0,178.0,179.0,179.0,180.0,180.0,176.0,177.0,177.0,177.0,178.0,174.0,174.0,178.0,179.0,179.0,179.0,179.0,179.0,180.0,180.0,180.0,177.0,178.0,174.0,175.0,175.0,176.0,176.0,176.0,177.0,174.0,174.0,175.0,175.0,176.0,177.0,0.0,0.0,0.0,0.0,0.0,0.0,0.0,0.0
57.0,57.0,56.0,55.0,56.0,55.0,55.0,55.0,55.0,55.0,55.0,55.0,56.0,56.0,56.0,56.0,58.0,59.0,60.0,62.0,62.0,62.0,63.0,63.0,63.0,65.0,65.0,65.0,65.0,66.0,67.0,68.0,67.0,68.0,69.0,70.0,70.0,71.0,71.0,71.0,72.0,73.0,74.0,76.0,77.0,77.0,78.0,79.0,78.0,79.0,81.0,82.0,82.0,83.0,84.0,84.0,85.0,86.0,87.0,88.0,88.0,89.0,90.0,91.0,94.0,93.0,96.0,96.0,97.0,98.0,98.0,99.0,101.0,102.0,104.0,104.0,106.0,107.0,109.0,109.0,110.0,113.0,112.0,115.0,115.0,115.0,115.0,209.0,209.0,209.0,209.0,209.0,209.0,209.0,204.0,204.0,204.0,204.0,205.0,205.0,205.0,205.0,205.0,211.0,211.0,211.0,211.0,211.0,211.0,211.0,205.0,204.0,204.0,210.0,210.0,210.0,210.0,210.0,209.0,216.0,216.0,209.0,215.0,0.0,0.0,0.0,0.0,0.0,0.0,0.0,0.0,0.0,0.0,0.0,48.0,48.0,48.0,48.0,47.0,47.0,47.0,46.0,46.0,45.0,45.0,45.0,45.0,46.0,45.0,45.0,46.0,46.0,46.0,46.0,46.0,46.0,47.0,46.0,47.0,47.0,48.0,48.0,49.0,48.0,49.0,49.0,49.0,49.0,49.0,49.0,49.0,49.0,50.0,49.0,50.0,50.0,50.0,50.0,50.0,50.0,50.0,50.0,50.0,50.0,50.0,50.0,50.0,50.0,51.0,51.0,51.0,50.0,51.0,51.0,51.0,51.0,51.0,51.0,51.0,52.0,53.0,53.0,53.0,53.0,54.0,54.0,53.0,54.0,54.0,54.0,55.0,0.0,0.0,0.0,0.0,0.0,0.0,0.0,0.0,118.0,118.0,118.0,118.0,118.0,118.0,118.0,117.0,115.0,117.0,117.0,115.0,115.0,115.0,115.0,115.0,114.0,114.0,195.0,195.0,190.0,190.0,191.0,191.0,191.0,191.0,191.0,191.0,191.0,191.0,191.0,187.0,187.0,187.0,188.0,188.0,188.0,189.0,189.0,189.0,190.0,190.0,186.0,186.0,182.0,183.0,179.0,179.0,180.0,180.0,180.0,176.0,177.0,177.0,178.0,178.0,179.0,179.0,175.0,176.0,176.0,176.0,177.0,177.0,177.0,177.0,178.0,178.0,178.0,178.0,179.0,179.0,179.0,179.0,179.0,180.0,180.0,180.0,176.0,177.0,178.0,175.0,175.0,175.0,176.0,177.0,177.0,177.0,178.0,175.0,175.0,176.0,176.0,0.0,0.0,0.0,0.0,0.0,0.0,0.0,0.0
57.0,57.0,56.0,56.0,55.0,55.0,55.0,55.0,55.0,55.0,55.0,55.0,56.0,56.0,57.0,57.0,58.0,59.0,59.0,63.0,63.0,63.0,63.0,63.0,64.0,64.0,65.0,65.0,65.0,66.0,67.0,68.0,68.0,69.0,70.0,71.0,70.0,71.0,71.0,71.0,72.0,73.0,74.0,76.0,76.0,77.0,78.0,78.0,78.0,79.0,81.0,81.0,82.0,83.0,84.0,84.0,85.0,85.0,87.0,88.0,88.0,89.0,90.0,91.0,94.0,93.0,96.0,96.0,97.0,97.0,98.0,98.0,99.0,102.0,104.0,106.0,107.0,107.0,109.0,109.0,111.0,111.0,113.0,113.0,115.0,115.0,115.0,209.0,209.0,209.0,209.0,209.0,209.0,210.0,204.0,204.0,204.0,204.0,205.0,205.0,205.0,205.0,205.0,206.0,205.0,211.0,211.0,211.0,205.0,205.0,205.0,204.0,204.0,210.0,210.0,210.0,210.0,209.0,209.0,215.0,209.0,209.0,209.0,0.0,0.0,0.0,0.0,0.0,0.0,0.0,0.0,0.0,0.0,0.0,48.0,48.0,48.0,47.0,47.0,47.0,47.0,46.0,46.0,46.0,45.0,45.0,46.0,46.0,45.0,45.0,46.0,46.0,46.0,46.0,46.0,46.0,46.0,46.0,47.0,46.0,48.0,48.0,49.0,49.0,49.0,49.0,49.0,50.0,50.0,50.0,49.0,50.0,49.0,50.0,50.0,50.0,50.0,50.0,50.0,50.0,50.0,50.0,50.0,50.0,50.0,50.0,50.0,50.0,50.0,50.0,51.0,51.0,50.0,51.0,51.0,51.0,52.0,51.0,51.0,52.0,53.0,53.0,53.0,53.0,54.0,54.0,53.0,54.0,54.0,54.0,55.0,0.0,0.0,0.0,0.0,0.0,0.0,0.0,0.0,118.0,118.0,118.0,118.0,118.0,118.0,118.0,118.0,117.0,117.0,117.0,117.0,115.0,115.0,115.0,114.0,114.0,115.0,195.0,190.0,190.0,190.0,191.0,191.0,191.0,191.0,191.0,191.0,191.0,192.0,187.0,187.0,187.0,188.0,188.0,188.0,189.0,189.0,189.0,185.0,186.0,186.0,186.0,182.0,183.0,179.0,179.0,180.0,180.0,180.0,177.0,177.0,177.0,178.0,178.0,179.0,179.0,180.0,176.0,176.0,177.0,177.0,177.0,177.0,178.0,178.0,178.0,178.0,179.0,179.0,179.0,175.0,179.0,179.0,179.0,180.0,180.0,180.0,177.0,177.0,178.0,178.0,175.0,176.0,176.0,177.0,177.0,178.0,178.0,179.0,175.0,176.0,176.0,0.0,0.0,0.0,0.0,0.0,0.0,0.0,0.0
57.0,57.0,56.0,56.0,55.0,55.0,55.0,55.0,56.0,55.0,55.0,56.0,56.0,57.0,57.0,57.0,58.0,58.0,59.0,62.0,63.0,63.0,63.0,63.0,64.0,64.0,65.0,65.0,66.0,66.0,67.0,68.0,68.0,68.0,69.0,71.0,71.0,71.0,71.0,71.0,72.0,74.0,74.0,76.0,76.0,76.0,77.0,77.0,78.0,79.0,81.0,81.0,82.0,83.0,84.0,84.0,84.0,85.0,87.0,88.0,88.0,89.0,90.0,91.0,92.0,93.0,94.0,96.0,97.0,97.0,98.0,98.0,99.0,102.0,104.0,106.0,105.0,107.0,109.0,109.0,109.0,111.0,113.0,115.0,115.0,117.0,117.0,209.0,209.0,209.0,209.0,209.0,209.0,210.0,204.0,204.0,205.0,205.0,205.0,205.0,205.0,206.0,206.0,206.0,211.0,211.0,211.0,211.0,205.0,205.0,205.0,204.0,204.0,210.0,210.0,210.0,216.0,215.0,215.0,215.0,215.0,209.0,215.0,0.0,0.0,0.0,0.0,0.0,0.0,0.0,0.0,0.0,0.0,49.0,48.0,48.0,48.0,47.0,47.0,47.0,47.0,46.0,46.0,46.0,46.0,46.0,46.0,46.0,45.0,45.0,46.0,46.0,46.0,46.0,46.0,46.0,46.0,47.0,47.0,47.0,48.0,49.0,49.0,49.0,49.0,49.0,50.0,50.0,50.0,50.0,49.0,49.0,50.0,50.0,50.0,50.0,50.0,50.0,50.0,50.0,50.0,50.0,50.0,51.0,51.0,51.0,50.0,50.0,50.0,50.0,51.0,51.0,50.0,51.0,51.0,51.0,52.0,51.0,51.0,52.0,52.0,53.0,53.0,53.0,53.0,54.0,53.0,54.0,54.0,54.0,55.0,0.0,0.0,0.0,0.0,0.0,0.0,0.0,0.0,118.0,118.0,118.0,118.0,118.0,118.0,118.0,117.0,115.0,117.0,117.0,117.0,117.0,115.0,115.0,114.0,115.0,114.0,190.0,190.0,191.0,190.0,191.0,191.0,191.0,191.0,191.0,192.0,192.0,192.0,187.0,187.0,188.0,188.0,188.0,189.0,189.0,189.0,190.0,186.0,186.0,186.0,187.0,183.0,183.0,180.0,180.0,180.0,181.0,177.0,177.0,178.0,178.0,178.0,179.0,179.0,179.0,176.0,176.0,177.0,177.0,177.0,178.0,178.0,178.0,178.0,178.0,178.0,179.0,179.0,179.0,175.0,175.0,176.0,176.0,180.0,180.0,176.0,177.0,178.0,179.0,175.0,175.0,180.0,176.0,177.0,177.0,177.0,178.0,178.0,175.0,176.0,177.0,0.0,0.0,0.0,0.0,0.0,0.0,0.0,0.0
57.0,57.0,56.0,56.0,56.0,56.0,56.0,56.0,56.0,55.0,56.0,56.0,57.0,56.0,57.0,57.0,59.0,59.0,60.0,61.0,62.0,63.0,63.0,63.0,64.0,65.0,65.0,65.0,66.0,66.0,67.0,68.0,69.0,69.0,69.0,71.0,71.0,71.0,71.0,72.0,72.0,73.0,73.0,76.0,76.0,76.0,77.0,78.0,78.0,80.0,81.0,82.0,82.0,83.0,84.0,84.0,85.0,85.0,87.0,88.0,88.0,89.0,90.0,91.0,92.0,93.0,94.0,96.0,97.0,97.0,98.0,98.0,99.0,102.0,104.0,104.0,106.0,107.0,109.0,109.0,109.0,111.0,111.0,113.0,115.0,115.0,118.0,203.0,203.0,209.0,209.0,209.0,210.0,210.0,204.0,205.0,205.0,205.0,205.0,206.0,205.0,206.0,206.0,206.0,205.0,205.0,205.0,205.0,205.0,205.0,205.0,205.0,205.0,210.0,210.0,210.0,216.0,216.0,209.0,215.0,215.0,209.0,209.0,215.0,0.0,0.0,0.0,0.0,0.0,0.0,0.0,0.0,0.0,0.0,48.0,48.0,47.0,47.0,47.0,47.0,47.0,46.0,46.0,46.0,46.0,46.0,46.0,46.0,45.0,46.0,46.0,46.0,46.0,46.0,46.0,46.0,47.0,47.0,47.0,47.0,48.0,49.0,49.0,49.0,49.0,50.0,50.0,50.0,50.0,50.0,50.0,50.0,50.0,50.0,50.0,50.0,50.0,50.0,50.0,50.0,51.0,51.0,50.0,51.0,51.0,51.0,51.0,51.0,51.0,50.0,51.0,51.0,51.0,51.0,51.0,51.0,52.0,52.0,51.0,52.0,52.0,53.0,53.0,53.0,53.0,54.0,53.0,54.0,54.0,54.0,55.0,55.0,0.0,0.0,0.0,0.0,0.0,0.0,0.0,120.0,118.0,118.0,118.0,118.0,118.0,117.0,117.0,117.0,117.0,117.0,117.0,117.0,117.0,115.0,114.0,116.0,116.0,195.0,190.0,191.0,191.0,191.0,191.0,191.0,191.0,191.0,192.0,192.0,192.0,188.0,188.0,188.0,188.0,189.0,189.0,189.0,190.0,190.0,186.0,186.0,187.0,187.0,183.0,184.0,180.0,180.0,180.0,181.0,181.0,178.0,178.0,178.0,179.0,179.0,179.0,180.0,176.0,177.0,177.0,177.0,178.0,174.0,178.0,174.0,175.0,179.0,179.0,179.0,179.0,179.0,176.0,176.0,176.0,176.0,176.0,180.0,176.0,177.0,178.0,179.0,175.0,175.0,176.0,176.0,177.0,177.0,178.0,178.0,178.0,179.0,176.0,177.0,0.0,0.0,0.0,0.0,0.0,0.0,0.0,0.0
57.0,57.0,56.0,56.0,56.0,56.0,56.0,56.0,56.0,56.0,55.0,56.0,56.0,56.0,57.0,58.0,59.0,60.0,60.0,61.0,62.0,63.0,64.0,63.0,63.0,65.0,65.0,65.0,65.0,66.0,68.0,68.0,69.0,70.0,69.0,71.0,71.0,71.0,71.0,72.0,72.0,74.0,74.0,76.0,76.0,76.0,77.0,78.0,78.0,80.0,81.0,82.0,82.0,82.0,83.0,85.0,85.0,86.0,87.0,88.0,88.0,89.0,90.0,91.0,92.0,93.0,93.0,94.0,95.0,97.0,98.0,98.0,99.0,102.0,104.0,104.0,106.0,107.0,109.0,109.0,109.0,111.0,111.0,113.0,113.0,115.0,115.0,209.0,209.0,209.0,210.0,210.0,210.0,210.0,204.0,205.0,205.0,205.0,205.0,206.0,205.0,206.0,206.0,206.0,205.0,205.0,205.0,205.0,205.0,205.0,211.0,211.0,211.0,210.0,210.0,210.0,210.0,209.0,209.0,209.0,209.0,209.0,209.0,209.0,0.0,0.0,0.0,0.0,0.0,0.0,0.0,0.0,0.0,0.0,48.0,47.0,47.0,46.0,46.0,47.0,46.0,46.0,46.0,46.0,46.0,46.0,45.0,46.0,46.0,46.0,46.0,46.0,46.0,46.0,46.0,47.0,47.0,47.0,47.0,47.0,48.0,49.0,49.0,50.0,49.0,50.0,50.0,50.0,50.0,50.0,50.0,50.0,50.0,50.0,50.0,50.0,50.0,50.0,51.0,51.0,51.0,51.0,50.0,50.0,50.0,50.0,50.0,51.0,51.0,51.0,51.0,51.0,51.0,51.0,51.0,51.0,52.0,52.0,52.0,52.0,52.0,53.0,53.0,53.0,53.0,53.0,54.0,54.0,54.0,54.0,55.0,55.0,54.0,0.0,0.0,0.0,0.0,0.0,0.0,120.0,118.0,118.0,118.0,118.0,117.0,117.0,117.0,117.0,117.0,117.0,117.0,117.0,117.0,117.0,114.0,114.0,195.0,190.0,190.0,191.0,191.0,191.0,191.0,191.0,191.0,192.0,192.0,192.0,192.0,188.0,188.0,188.0,188.0,189.0,189.0,190.0,190.0,190.0,186.0,187.0,187.0,187.0,184.0,180.0,180.0,180.0,181.0,177.0,177.0,178.0,178.0,179.0,179.0,179.0,180.0,180.0,181.0,181.0,177.0,178.0,178.0,178.0,179.0,175.0,175.0,175.0,175.0,175.0,176.0,176.0,176.0,176.0,176.0,176.0,176.0,180.0,180.0,177.0,178.0,179.0,175.0,175.0,176.0,177.0,177.0,178.0,178.0,178.0,178.0,175.0,176.0,176.0,0.0,0.0,0.0,0.0,0.0,0.0,0.0,0.0
57.0,57.0,56.0,57.0,57.0,56.0,56.0,56.0,56.0,56.0,55.0,56.0,56.0,56.0,57.0,58.0,60.0,61.0,61.0,61.0,62.0,63.0,63.0,63.0,64.0,65.0,66.0,65.0,66.0,66.0,68.0,68.0,69.0,70.0,70.0,71.0,71.0,71.0,71.0,72.0,71.0,73.0,75.0,76.0,76.0,76.0,77.0,77.0,77.0,79.0,81.0,82.0,81.0,82.0,83.0,84.0,85.0,86.0,87.0,88.0,88.0,89.0,90.0,91.0,92.0,93.0,93.0,94.0,95.0,97.0,98.0,98.0,99.0,102.0,104.0,104.0,104.0,106.0,108.0,109.0,109.0,111.0,111.0,111.0,113.0,113.0,116.0,203.0,204.0,204.0,210.0,210.0,210.0,210.0,204.0,205.0,206.0,206.0,206.0,206.0,206.0,206.0,206.0,206.0,206.0,205.0,205.0,205.0,206.0,205.0,211.0,211.0,211.0,211.0,210.0,210.0,210.0,210.0,209.0,209.0,209.0,209.0,209.0,209.0,208.0,0.0,0.0,0.0,0.0,0.0,0.0,0.0,0.0,0.0,0.0,47.0,47.0,46.0,46.0,47.0,46.0,46.0,46.0,46.0,46.0,45.0,45.0,46.0,46.0,46.0,46.0,46.0,46.0,46.0,46.0,47.0,47.0,47.0,47.0,47.0,48.0,49.0,49.0,49.0,49.0,50.0,50.0,50.0,50.0,50.0,50.0,50.0,50.0,50.0,50.0,50.0,50.0,51.0,51.0,51.0,50.0,50.0,50.0,50.0,50.0,50.0,50.0,50.0,51.0,51.0,51.0,51.0,51.0,51.0,51.0,51.0,52.0,52.0,52.0,52.0,52.0,53.0,53.0,53.0,53.0,53.0,53.0,54.0,54.0,54.0,55.0,54.0,54.0,0.0,0.0,0.0,0.0,0.0,120.0,120.0,118.0,118.0,118.0,117.0,117.0,117.0,117.0,117.0,117.0,117.0,117.0,117.0,117.0,117.0,114.0,114.0,190.0,190.0,191.0,191.0,191.0,191.0,191.0,192.0,191.0,192.0,192.0,192.0,192.0,188.0,188.0,188.0,189.0,189.0,190.0,190.0,190.0,191.0,187.0,187.0,187.0,184.0,184.0,180.0,181.0,181.0,177.0,178.0,178.0,178.0,175.0,175.0,179.0,180.0,180.0,180.0,181.0,181.0,182.0,178.0,178.0,175.0,175.0,175.0,175.0,176.0,175.0,176.0,176.0,176.0,176.0,176.0,176.0,176.0,176.0,177.0,181.0,177.0,178.0,179.0,179.0,179.0,180.0,177.0,177.0,177.0,177.0,178.0,178.0,175.0,175.0,176.0,0.0,0.0,0.0,0.0,0.0,0.0,0.0,0.0
57.0,57.0,56.0,56.0,56.0,56.0,56.0,56.0,56.0,56.0,56.0,56.0,56.0,56.0,57.0,57.0,60.0,61.0,61.0,61.0,62.0,63.0,63.0,64.0,64.0,64.0,64.0,66.0,65.0,66.0,67.0,68.0,69.0,70.0,71.0,71.0,71.0,71.0,71.0,72.0,73.0,73.0,75.0,76.0,76.0,77.0,76.0,77.0,77.0,78.0,80.0,81.0,81.0,82.0,83.0,85.0,85.0,86.0,87.0,88.0,88.0,89.0,90.0,91.0,92.0,93.0,93.0,94.0,95.0,97.0,96.0,98.0,99.0,103.0,102.0,104.0,104.0,106.0,108.0,109.0,109.0,111.0,111.0,111.0,113.0,114.0,114.0,204.0,204.0,205.0,204.0,205.0,210.0,205.0,205.0,206.0,206.0,206.0,206.0,206.0,206.0,206.0,206.0,207.0,206.0,206.0,206.0,206.0,206.0,205.0,211.0,211.0,211.0,210.0,210.0,210.0,210.0,210.0,210.0,209.0,209.0,209.0,209.0,208.0,208.0,0.0,0.0,0.0,0.0,0.0,0.0,0.0,0.0,0.0,0.0,0.0,47.0,46.0,46.0,46.0,46.0,46.0,46.0,45.0,46.0,45.0,45.0,46.0,46.0,46.0,46.0,46.0,46.0,46.0,46.0,46.0,46.0,47.0,47.0,47.0,48.0,49.0,49.0,49.0,49.0,50.0,50.0,50.0,50.0,50.0,50.0,50.0,50.0,50.0,50.0,50.0,50.0,50.0,50.0,50.0,50.0,50.0,50.0,50.0,51.0,50.0,50.0,50.0,51.0,51.0,51.0,50.0,50.0,51.0,50.0,51.0,52.0,52.0,51.0,52.0,52.0,52.0,53.0,53.0,53.0,53.0,54.0,54.0,54.0,55.0,54.0,54.0,54.0,0.0,0.0,0.0,0.0,121.0,121.0,120.0,118.0,118.0,117.0,117.0,115.0,115.0,117.0,115.0,117.0,117.0,117.0,117.0,117.0,117.0,114.0,114.0,190.0,191.0,191.0,191.0,191.0,191.0,191.0,192.0,192.0,192.0,192.0,192.0,193.0,188.0,189.0,189.0,189.0,189.0,190.0,190.0,191.0,187.0,187.0,187.0,183.0,184.0,180.0,180.0,181.0,177.0,178.0,178.0,178.0,179.0,175.0,175.0,180.0,180.0,177.0,181.0,177.0,178.0,178.0,178.0,175.0,175.0,175.0,176.0,175.0,176.0,176.0,176.0,176.0,176.0,176.0,176.0,176.0,173.0,177.0,177.0,177.0,178.0,178.0,178.0,179.0,180.0,180.0,176.0,177.0,177.0,177.0,178.0,178.0,175.0,176.0,176.0,0.0,0.0,0.0,0.0,0.0,0.0,0.0,0.0
58.0,57.0,57.0,56.0,56.0,56.0,56.0,56.0,56.0,55.0,56.0,56.0,56.0,57.0,57.0,58.0,59.0,61.0,61.0,62.0,61.0,62.0,63.0,64.0,64.0,64.0,65.0,66.0,66.0,66.0,67.0,68.0,68.0,69.0,71.0,71.0,71.0,72.0,71.0,72.0,73.0,73.0,74.0,75.0,76.0,76.0,76.0,77.0,78.0,78.0,80.0,81.0,81.0,82.0,83.0,85.0,85.0,86.0,87.0,88.0,89.0,89.0,90.0,91.0,92.0,93.0,93.0,94.0,95.0,97.0,98.0,98.0,99.0,103.0,102.0,104.0,104.0,106.0,108.0,110.0,110.0,112.0,111.0,111.0,114.0,114.0,114.0,210.0,204.0,204.0,204.0,210.0,211.0,205.0,205.0,206.0,206.0,206.0,206.0,206.0,207.0,206.0,206.0,207.0,207.0,206.0,206.0,206.0,206.0,212.0,211.0,211.0,211.0,211.0,211.0,210.0,210.0,210.0,210.0,209.0,209.0,209.0,209.0,208.0,0.0,0.0,0.0,0.0,0.0,0.0,0.0,0.0,0.0,0.0,0.0,0.0,47.0,46.0,46.0,46.0,46.0,46.0,46.0,45.0,45.0,45.0,45.0,46.0,46.0,46.0,46.0,46.0,46.0,46.0,46.0,46.0,47.0,46.0,47.0,47.0,49.0,49.0,49.0,49.0,50.0,50.0,50.0,50.0,50.0,50.0,50.0,50.0,50.0,50.0,50.0,50.0,50.0,50.0,50.0,50.0,50.0,50.0,50.0,50.0,50.0,50.0,50.0,50.0,50.0,51.0,51.0,51.0,50.0,50.0,50.0,50.0,51.0,52.0,51.0,52.0,52.0,52.0,52.0,52.0,53.0,53.0,54.0,54.0,55.0,55.0,54.0,55.0,55.0,0.0,0.0,0.0,0.0,0.0,120.0,120.0,118.0,117.0,117.0,117.0,117.0,117.0,117.0,117.0,117.0,117.0,115.0,117.0,117.0,117.0,116.0,117.0,190.0,191.0,191.0,191.0,191.0,191.0,191.0,192.0,192.0,192.0,188.0,188.0,188.0,189.0,189.0,189.0,189.0,190.0,190.0,190.0,191.0,187.0,183.0,184.0,184.0,180.0,180.0,181.0,177.0,178.0,178.0,178.0,179.0,179.0,175.0,176.0,180.0,181.0,177.0,177.0,178.0,178.0,179.0,179.0,175.0,176.0,176.0,176.0,176.0,180.0,176.0,176.0,180.0,176.0,176.0,177.0,177.0,173.0,173.0,177.0,177.0,178.0,178.0,179.0,175.0,180.0,180.0,177.0,177.0,177.0,178.0,178.0,178.0,175.0,175.0,176.0,0.0,0.0,0.0,0.0,0.0,0.0,0.0,0.0
58.0,57.0,57.0,56.0,57.0,56.0,56.0,56.0,56.0,56.0,56.0,56.0,56.0,57.0,57.0,57.0,61.0,61.0,61.0,61.0,62.0,62.0,63.0,63.0,64.0,64.0,65.0,66.0,66.0,66.0,67.0,68.0,69.0,69.0,71.0,72.0,71.0,72.0,71.0,72.0,73.0,73.0,74.0,76.0,76.0,76.0,76.0,77.0,78.0,79.0,80.0,81.0,81.0,82.0,83.0,85.0,85.0,88.0,87.0,88.0,89.0,89.0,90.0,91.0,92.0,93.0,95.0,94.0,96.0,95.0,98.0,98.0,99.0,103.0,103.0,104.0,104.0,106.0,108.0,110.0,110.0,112.0,111.0,112.0,114.0,114.0,114.0,114.0,204.0,205.0,205.0,205.0,205.0,205.0,206.0,206.0,206.0,207.0,207.0,207.0,207.0,207.0,207.0,207.0,207.0,206.0,206.0,206.0,212.0,212.0,212.0,211.0,211.0,211.0,211.0,210.0,210.0,210.0,210.0,209.0,209.0,209.0,208.0,208.0,0.0,0.0,0.0,0.0,0.0,0.0,0.0,0.0,0.0,0.0,0.0,0.0,47.0,46.0,46.0,46.0,46.0,46.0,46.0,45.0,45.0,45.0,45.0,46.0,46.0,46.0,46.0,46.0,46.0,46.0,46.0,46.0,46.0,46.0,47.0,47.0,49.0,49.0,49.0,49.0,50.0,50.0,50.0,50.0,50.0,50.0,50.0,50.0,50.0,50.0,50.0,50.0,50.0,50.0,50.0,50.0,50.0,50.0,50.0,50.0,50.0,50.0,50.0,50.0,50.0,50.0,50.0,51.0,50.0,50.0,50.0,50.0,51.0,52.0,51.0,52.0,52.0,52.0,53.0,53.0,53.0,53.0,54.0,54.0,54.0,55.0,54.0,54.0,54.0,55.0,0.0,0.0,0.0,0.0,120.0,122.0,120.0,118.0,117.0,117.0,117.0,117.0,117.0,117.0,115.0,115.0,115.0,115.0,117.0,117.0,115.0,115.0,115.0,191.0,191.0,191.0,191.0,191.0,191.0,192.0,192.0,193.0,188.0,188.0,189.0,189.0,189.0,189.0,190.0,190.0,191.0,191.0,187.0,187.0,184.0,184.0,184.0,181.0,181.0,181.0,178.0,178.0,178.0,179.0,179.0,179.0,176.0,176.0,180.0,181.0,177.0,178.0,178.0,179.0,179.0,179.0,176.0,176.0,176.0,176.0,180.0,176.0,176.0,180.0,180.0,180.0,177.0,177.0,177.0,177.0,177.0,178.0,178.0,178.0,178.0,178.0,179.0,180.0,176.0,177.0,177.0,177.0,177.0,178.0,178.0,175.0,176.0,176.0,0.0,0.0,0.0,0.0,0.0,0.0,0.0,0.0
59.0,57.0,57.0,57.0,57.0,57.0,56.0,56.0,56.0,56.0,56.0,56.0,57.0,56.0,57.0,57.0,61.0,62.0,61.0,61.0,62.0,62.0,62.0,63.0,64.0,65.0,65.0,66.0,67.0,66.0,68.0,68.0,69.0,69.0,70.0,71.0,71.0,72.0,72.0,72.0,73.0,73.0,75.0,76.0,76.0,76.0,77.0,77.0,78.0,79.0,80.0,81.0,81.0,82.0,83.0,85.0,86.0,86.0,87.0,88.0,89.0,89.0,91.0,92.0,92.0,93.0,95.0,95.0,96.0,97.0,98.0,100.0,100.0,103.0,103.0,104.0,104.0,104.0,108.0,108.0,110.0,110.0,112.0,112.0,114.0,114.0,114.0,114.0,205.0,205.0,205.0,205.0,206.0,206.0,206.0,206.0,206.0,207.0,207.0,207.0,207.0,207.0,207.0,207.0,207.0,207.0,207.0,206.0,212.0,212.0,212.0,211.0,211.0,211.0,211.0,210.0,216.0,210.0,210.0,209.0,209.0,209.0,214.0,0.0,0.0,0.0,0.0,0.0,0.0,0.0,0.0,0.0,0.0,0.0,0.0,0.0,47.0,46.0,46.0,46.0,46.0,45.0,46.0,46.0,45.0,46.0,45.0,45.0,46.0,46.0,46.0,46.0,46.0,46.0,46.0,46.0,46.0,47.0,47.0,47.0,49.0,49.0,49.0,49.0,50.0,50.0,50.0,50.0,50.0,50.0,50.0,50.0,50.0,50.0,50.0,50.0,50.0,50.0,50.0,50.0,50.0,50.0,50.0,50.0,50.0,50.0,50.0,50.0,50.0,50.0,51.0,51.0,50.0,50.0,51.0,50.0,51.0,52.0,51.0,52.0,52.0,52.0,53.0,53.0,53.0,53.0,54.0,54.0,54.0,54.0,54.0,54.0,54.0,0.0,0.0,0.0,0.0,0.0,120.0,122.0,118.0,118.0,117.0,117.0,117.0,115.0,117.0,115.0,115.0,115.0,115.0,115.0,115.0,117.0,115.0,115.0,115.0,191.0,191.0,191.0,191.0,191.0,192.0,192.0,192.0,193.0,188.0,189.0,189.0,189.0,189.0,190.0,190.0,186.0,187.0,187.0,187.0,183.0,184.0,184.0,181.0,181.0,181.0,178.0,178.0,179.0,175.0,175.0,176.0,176.0,176.0,177.0,177.0,177.0,174.0,178.0,179.0,175.0,175.0,176.0,176.0,176.0,176.0,176.0,180.0,180.0,180.0,180.0,181.0,181.0,181.0,177.0,177.0,177.0,177.0,178.0,178.0,178.0,178.0,178.0,175.0,176.0,176.0,177.0,177.0,177.0,178.0,178.0,178.0,175.0,176.0,176.0,0.0,0.0,0.0,0.0,0.0,0.0,0.0,0.0
0.0,58.0,58.0,57.0,57.0,57.0,57.0,57.0,56.0,56.0,56.0,57.0,57.0,57.0,57.0,57.0,57.0,62.0,62.0,61.0,62.0,62.0,62.0,63.0,64.0,65.0,66.0,66.0,66.0,67.0,67.0,67.0,69.0,69.0,70.0,71.0,71.0,72.0,73.0,73.0,74.0,74.0,74.0,75.0,75.0,76.0,77.0,77.0,78.0,79.0,79.0,81.0,82.0,82.0,83.0,85.0,86.0,85.0,86.0,88.0,89.0,89.0,90.0,91.0,94.0,95.0,95.0,96.0,97.0,97.0,98.0,100.0,101.0,103.0,103.0,103.0,104.0,104.0,106.0,108.0,108.0,110.0,112.0,112.0,114.0,114.0,114.0,114.0,205.0,206.0,206.0,206.0,206.0,206.0,206.0,206.0,207.0,207.0,207.0,208.0,208.0,202.0,208.0,208.0,208.0,208.0,208.0,207.0,213.0,212.0,212.0,212.0,211.0,211.0,217.0,211.0,216.0,216.0,210.0,209.0,209.0,209.0,215.0,0.0,0.0,0.0,0.0,0.0,0.0,0.0,0.0,0.0,0.0,0.0,0.0,0.0,46.0,46.0,46.0,46.0,46.0,45.0,46.0,45.0,45.0,46.0,45.0,45.0,46.0,46.0,46.0,46.0,46.0,46.0,46.0,46.0,46.0,47.0,47.0,47.0,48.0,49.0,49.0,50.0,49.0,50.0,50.0,50.0,50.0,50.0,50.0,50.0,50.0,50.0,49.0,50.0,49.0,49.0,50.0,50.0,50.0,50.0,50.0,50.0,50.0,50.0,50.0,50.0,51.0,50.0,51.0,51.0,50.0,50.0,50.0,50.0,51.0,51.0,51.0,52.0,52.0,52.0,52.0,53.0,53.0,54.0,54.0,54.0,54.0,54.0,54.0,54.0,54.0,54.0,0.0,0.0,0.0,0.0,120.0,120.0,118.0,117.0,117.0,117.0,117.0,115.0,117.0,115.0,115.0,115.0,115.0,115.0,115.0,117.0,115.0,115.0,115.0,191.0,192.0,192.0,192.0,192.0,192.0,188.0,188.0,193.0,188.0,189.0,189.0,189.0,190.0,190.0,190.0,186.0,187.0,187.0,183.0,184.0,180.0,181.0,181.0,182.0,178.0,178.0,179.0,175.0,176.0,176.0,176.0,176.0,173.0,173.0,174.0,178.0,174.0,179.0,179.0,176.0,176.0,176.0,176.0,176.0,177.0,177.0,177.0,177.0,181.0,181.0,181.0,181.0,181.0,181.0,181.0,181.0,178.0,177.0,177.0,178.0,178.0,179.0,179.0,176.0,176.0,176.0,177.0,178.0,178.0,178.0,175.0,175.0,176.0,177.0,0.0,0.0,0.0,0.0,0.0,0.0,0.0,0.0
58.0,57.0,58.0,57.0,58.0,57.0,57.0,57.0,56.0,56.0,56.0,57.0,57.0,57.0,57.0,57.0,57.0,61.0,62.0,62.0,62.0,63.0,63.0,63.0,64.0,65.0,66.0,66.0,66.0,67.0,67.0,67.0,68.0,69.0,69.0,70.0,71.0,72.0,72.0,73.0,74.0,74.0,75.0,76.0,76.0,76.0,77.0,76.0,78.0,80.0,79.0,81.0,82.0,82.0,83.0,85.0,85.0,85.0,86.0,88.0,89.0,89.0,90.0,91.0,94.0,93.0,95.0,95.0,97.0,97.0,99.0,100.0,102.0,103.0,103.0,103.0,105.0,104.0,106.0,108.0,110.0,110.0,112.0,112.0,114.0,114.0,115.0,115.0,115.0,206.0,206.0,206.0,206.0,206.0,206.0,207.0,207.0,207.0,207.0,207.0,208.0,202.0,208.0,208.0,208.0,214.0,214.0,207.0,213.0,213.0,212.0,212.0,212.0,211.0,217.0,217.0,216.0,216.0,210.0,209.0,209.0,208.0,208.0,0.0,0.0,0.0,0.0,0.0,0.0,0.0,0.0,0.0,0.0,0.0,0.0,0.0,0.0,46.0,46.0,46.0,46.0,45.0,46.0,45.0,45.0,45.0,45.0,45.0,46.0,46.0,46.0,46.0,46.0,46.0,46.0,46.0,46.0,47.0,47.0,47.0,48.0,49.0,49.0,50.0,50.0,50.0,50.0,50.0,50.0,50.0,50.0,50.0,50.0,50.0,50.0,50.0,49.0,49.0,50.0,50.0,50.0,50.0,50.0,50.0,50.0,50.0,50.0,50.0,50.0,50.0,50.0,51.0,50.0,50.0,50.0,50.0,51.0,51.0,51.0,51.0,52.0,52.0,52.0,53.0,53.0,54.0,53.0,54.0,54.0,54.0,53.0,53.0,54.0,0.0,0.0,0.0,0.0,0.0,0.0,122.0,120.0,118.0,117.0,117.0,117.0,115.0,117.0,115.0,115.0,115.0,115.0,115.0,115.0,117.0,115.0,115.0,115.0,187.0,192.0,187.0,187.0,192.0,187.0,188.0,188.0,188.0,189.0,189.0,189.0,189.0,190.0,190.0,186.0,187.0,187.0,188.0,184.0,180.0,181.0,181.0,181.0,178.0,178.0,179.0,179.0,176.0,176.0,176.0,173.0,173.0,174.0,174.0,174.0,175.0,175.0,175.0,175.0,176.0,176.0,176.0,177.0,177.0,177.0,177.0,177.0,177.0,181.0,181.0,181.0,181.0,181.0,181.0,181.0,177.0,177.0,178.0,178.0,179.0,178.0,179.0,179.0,176.0,176.0,177.0,177.0,177.0,178.0,178.0,175.0,176.0,176.0,177.0,0.0,0.0,0.0,0.0,0.0,0.0,0.0,0.0
57.0,57.0,57.0,58.0,57.0,57.0,57.0,56.0,57.0,56.0,57.0,57.0,58.0,58.0,58.0,58.0,58.0,57.0,61.0,62.0,62.0,62.0,63.0,63.0,65.0,65.0,65.0,67.0,66.0,67.0,67.0,67.0,67.0,70.0,70.0,72.0,72.0,72.0,73.0,73.0,74.0,75.0,75.0,76.0,77.0,76.0,77.0,78.0,78.0,80.0,79.0,81.0,82.0,83.0,84.0,85.0,86.0,85.0,86.0,88.0,90.0,89.0,90.0,91.0,94.0,95.0,95.0,96.0,98.0,97.0,100.0,100.0,102.0,103.0,103.0,104.0,105.0,105.0,106.0,108.0,110.0,110.0,112.0,112.0,114.0,115.0,115.0,115.0,206.0,206.0,207.0,206.0,207.0,207.0,207.0,207.0,207.0,208.0,208.0,208.0,208.0,203.0,208.0,208.0,208.0,214.0,214.0,213.0,213.0,213.0,212.0,212.0,212.0,218.0,217.0,217.0,216.0,216.0,216.0,215.0,209.0,208.0,208.0,0.0,0.0,0.0,0.0,0.0,0.0,0.0,0.0,0.0,0.0,0.0,0.0,0.0,47.0,47.0,46.0,46.0,46.0,45.0,45.0,45.0,45.0,45.0,45.0,45.0,46.0,46.0,46.0,46.0,47.0,45.0,46.0,46.0,46.0,47.0,47.0,47.0,48.0,49.0,49.0,49.0,49.0,50.0,50.0,50.0,50.0,50.0,50.0,50.0,50.0,49.0,50.0,49.0,50.0,50.0,50.0,50.0,50.0,50.0,50.0,50.0,50.0,50.0,50.0,50.0,50.0,50.0,50.0,51.0,50.0,50.0,50.0,50.0,50.0,51.0,51.0,51.0,52.0,51.0,52.0,53.0,53.0,53.0,53.0,53.0,53.0,54.0,53.0,53.0,53.0,0.0,0.0,0.0,0.0,0.0,0.0,120.0,118.0,117.0,117.0,117.0,117.0,115.0,115.0,115.0,115.0,115.0,115.0,115.0,115.0,117.0,115.0,115.0,115.0,187.0,192.0,192.0,192.0,193.0,188.0,188.0,188.0,189.0,189.0,189.0,190.0,190.0,190.0,186.0,187.0,187.0,188.0,184.0,180.0,180.0,181.0,181.0,178.0,178.0,179.0,179.0,180.0,176.0,177.0,177.0,173.0,174.0,174.0,175.0,175.0,175.0,171.0,172.0,176.0,172.0,173.0,173.0,173.0,173.0,173.0,177.0,177.0,177.0,181.0,181.0,181.0,181.0,181.0,181.0,182.0,182.0,178.0,178.0,178.0,179.0,178.0,179.0,179.0,176.0,176.0,177.0,177.0,177.0,178.0,174.0,175.0,176.0,176.0,177.0,0.0,0.0,0.0,0.0,0.0,0.0,0.0,0.0
57.0,58.0,58.0,58.0,57.0,57.0,57.0,57.0,57.0,57.0,57.0,57.0,57.0,58.0,58.0,58.0,58.0,59.0,60.0,61.0,61.0,62.0,62.0,63.0,65.0,65.0,65.0,66.0,66.0,66.0,67.0,67.0,67.0,70.0,70.0,71.0,72.0,73.0,73.0,73.0,74.0,75.0,74.0,75.0,77.0,77.0,77.0,77.0,79.0,80.0,80.0,81.0,81.0,83.0,84.0,85.0,85.0,85.0,86.0,88.0,89.0,89.0,90.0,90.0,94.0,95.0,95.0,96.0,98.0,99.0,100.0,100.0,102.0,103.0,105.0,105.0,105.0,105.0,108.0,108.0,110.0,110.0,112.0,113.0,115.0,70.0,70.0,72.0,74.0,206.0,207.0,207.0,207.0,207.0,207.0,208.0,208.0,208.0,208.0,208.0,208.0,208.0,208.0,208.0,208.0,214.0,208.0,213.0,213.0,213.0,212.0,212.0,212.0,218.0,224.0,224.0,223.0,223.0,216.0,215.0,215.0,214.0,208.0,0.0,0.0,0.0,0.0,0.0,0.0,0.0,0.0,0.0,0.0,0.0,0.0,48.0,48.0,47.0,46.0,46.0,46.0,45.0,45.0,45.0,45.0,45.0,45.0,46.0,46.0,46.0,46.0,46.0,46.0,45.0,46.0,46.0,46.0,46.0,47.0,47.0,48.0,49.0,49.0,49.0,49.0,49.0,49.0,50.0,50.0,50.0,49.0,50.0,49.0,50.0,49.0,50.0,50.0,50.0,50.0,50.0,50.0,50.0,50.0,50.0,50.0,50.0,50.0,50.0,50.0,50.0,50.0,51.0,51.0,50.0,50.0,50.0,50.0,50.0,51.0,51.0,52.0,51.0,52.0,53.0,53.0,53.0,53.0,53.0,53.0,54.0,53.0,53.0,54.0,54.0,0.0,0.0,0.0,0.0,0.0,0.0,117.0,117.0,115.0,115.0,115.0,115.0,115.0,115.0,117.0,115.0,115.0,115.0,115.0,115.0,115.0,115.0,115.0,187.0,193.0,193.0,193.0,193.0,188.0,188.0,189.0,189.0,189.0,190.0,190.0,186.0,186.0,187.0,187.0,183.0,183.0,184.0,180.0,181.0,181.0,182.0,178.0,179.0,179.0,180.0,176.0,177.0,177.0,178.0,174.0,175.0,175.0,175.0,175.0,172.0,172.0,172.0,173.0,173.0,173.0,173.0,173.0,173.0,174.0,178.0,177.0,178.0,181.0,181.0,181.0,182.0,186.0,182.0,182.0,182.0,182.0,178.0,179.0,179.0,179.0,179.0,179.0,176.0,176.0,176.0,177.0,177.0,178.0,174.0,175.0,176.0,176.0,177.0,0.0,0.0,0.0,0.0,0.0,0.0,0.0,0.0
0.0,59.0,59.0,58.0,58.0,58.0,58.0,57.0,57.0,57.0,57.0,57.0,57.0,57.0,58.0,58.0,59.0,58.0,59.0,60.0,61.0,62.0,64.0,64.0,65.0,65.0,65.0,66.0,67.0,67.0,68.0,69.0,69.0,70.0,71.0,70.0,72.0,73.0,74.0,74.0,74.0,75.0,75.0,75.0,76.0,76.0,77.0,79.0,80.0,80.0,80.0,81.0,82.0,84.0,84.0,85.0,85.0,85.0,86.0,90.0,91.0,89.0,90.0,90.0,93.0,95.0,97.0,97.0,98.0,99.0,101.0,100.0,100.0,105.0,105.0,105.0,105.0,107.0,109.0,75.0,111.0,75.0,113.0,74.0,74.0,73.0,73.0,72.0,75.0,75.0,207.0,207.0,207.0,207.0,207.0,208.0,208.0,209.0,208.0,208.0,209.0,209.0,209.0,209.0,209.0,208.0,214.0,214.0,213.0,213.0,213.0,212.0,212.0,218.0,224.0,224.0,223.0,216.0,216.0,209.0,209.0,208.0,208.0,0.0,0.0,0.0,0.0,0.0,0.0,0.0,0.0,0.0,0.0,0.0,48.0,48.0,47.0,47.0,46.0,46.0,46.0,45.0,46.0,45.0,45.0,45.0,45.0,46.0,45.0,46.0,46.0,46.0,46.0,45.0,46.0,46.0,46.0,46.0,47.0,47.0,48.0,49.0,49.0,49.0,49.0,49.0,50.0,50.0,50.0,50.0,50.0,50.0,50.0,50.0,49.0,50.0,50.0,50.0,50.0,50.0,50.0,50.0,50.0,50.0,50.0,50.0,50.0,49.0,49.0,49.0,49.0,50.0,51.0,50.0,50.0,50.0,50.0,50.0,51.0,50.0,51.0,51.0,51.0,53.0,52.0,53.0,53.0,53.0,53.0,53.0,53.0,53.0,53.0,53.0,0.0,0.0,0.0,0.0,0.0,0.0,117.0,117.0,117.0,115.0,115.0,115.0,115.0,115.0,117.0,115.0,115.0,115.0,115.0,115.0,116.0,116.0,116.0,116.0,193.0,188.0,193.0,189.0,189.0,189.0,189.0,189.0,190.0,190.0,186.0,186.0,186.0,187.0,187.0,183.0,184.0,180.0,181.0,181.0,182.0,178.0,179.0,179.0,180.0,180.0,177.0,177.0,174.0,174.0,175.0,175.0,175.0,172.0,172.0,172.0,172.0,173.0,173.0,173.0,173.0,174.0,174.0,174.0,174.0,178.0,178.0,178.0,182.0,182.0,182.0,186.0,186.0,186.0,186.0,182.0,182.0,183.0,179.0,179.0,179.0,179.0,180.0,176.0,177.0,177.0,177.0,177.0,178.0,178.0,175.0,176.0,177.0,177.0,0.0,0.0,0.0,0.0,0.0,0.0,0.0,0.0
0.0,0.0,59.0,58.0,58.0,58.0,58.0,57.0,57.0,57.0,56.0,57.0,57.0,57.0,58.0,58.0,59.0,59.0,60.0,60.0,61.0,62.0,65.0,65.0,64.0,65.0,65.0,66.0,66.0,68.0,68.0,69.0,69.0,69.0,70.0,69.0,71.0,73.0,73.0,75.0,74.0,75.0,75.0,75.0,76.0,76.0,77.0,78.0,80.0,81.0,81.0,81.0,81.0,82.0,84.0,84.0,85.0,85.0,86.0,88.0,90.0,89.0,91.0,90.0,0.0,0.0,0.0,0.0,0.0,0.0,0.0,0.0,0.0,0.0,0.0,0.0,105.0,76.0,76.0,75.0,75.0,75.0,74.0,75.0,74.0,74.0,75.0,73.0,75.0,75.0,75.0,207.0,208.0,208.0,208.0,208.0,208.0,209.0,209.0,209.0,209.0,209.0,209.0,209.0,209.0,208.0,208.0,208.0,214.0,207.0,207.0,206.0,206.0,218.0,224.0,217.0,223.0,216.0,216.0,209.0,209.0,208.0,208.0,0.0,0.0,0.0,0.0,0.0,0.0,0.0,0.0,0.0,0.0,0.0,47.0,48.0,47.0,47.0,46.0,46.0,46.0,45.0,45.0,45.0,45.0,45.0,45.0,46.0,45.0,46.0,46.0,46.0,46.0,45.0,46.0,46.0,46.0,47.0,47.0,47.0,49.0,49.0,49.0,49.0,49.0,49.0,50.0,50.0,50.0,50.0,50.0,49.0,50.0,50.0,50.0,50.0,50.0,50.0,50.0,50.0,50.0,50.0,50.0,50.0,50.0,50.0,49.0,49.0,49.0,50.0,50.0,50.0,51.0,50.0,50.0,50.0,50.0,50.0,51.0,50.0,51.0,51.0,52.0,53.0,52.0,53.0,53.0,52.0,53.0,53.0,53.0,53.0,53.0,54.0,0.0,0.0,0.0,0.0,0.0,0.0,117.0,117.0,117.0,115.0,115.0,115.0,115.0,115.0,117.0,115.0,115.0,115.0,115.0,116.0,116.0,116.0,116.0,116.0,193.0,193.0,193.0,189.0,189.0,189.0,189.0,190.0,190.0,190.0,186.0,186.0,187.0,187.0,188.0,184.0,180.0,181.0,181.0,182.0,182.0,179.0,179.0,180.0,180.0,177.0,177.0,178.0,174.0,175.0,175.0,172.0,175.0,172.0,172.0,173.0,173.0,173.0,173.0,173.0,174.0,174.0,174.0,174.0,174.0,174.0,178.0,178.0,178.0,182.0,182.0,182.0,186.0,186.0,186.0,186.0,182.0,183.0,179.0,179.0,180.0,180.0,180.0,177.0,177.0,177.0,177.0,177.0,178.0,179.0,176.0,176.0,177.0,177.0,0.0,0.0,0.0,0.0,0.0,0.0,0.0,0.0
0.0,0.0,59.0,59.0,58.0,58.0,57.0,58.0,57.0,57.0,57.0,57.0,57.0,57.0,57.0,58.0,58.0,58.0,59.0,60.0,60.0,60.0,65.0,65.0,65.0,65.0,65.0,0.0,0.0,0.0,0.0,69.0,70.0,69.0,70.0,70.0,70.0,74.0,74.0,75.0,74.0,75.0,75.0,74.0,75.0,75.0,75.0,76.0,80.0,81.0,82.0,81.0,81.0,82.0,83.0,84.0,85.0,84.0,85.0,87.0,88.0,88.0,89.0,0.0,0.0,0.0,0.0,56.0,55.0,56.0,56.0,55.0,55.0,0.0,0.0,0.0,76.0,75.0,75.0,75.0,75.0,75.0,74.0,75.0,74.0,75.0,75.0,75.0,75.0,75.0,75.0,202.0,202.0,208.0,208.0,209.0,209.0,209.0,209.0,209.0,209.0,209.0,209.0,209.0,209.0,209.0,209.0,208.0,208.0,213.0,207.0,207.0,206.0,218.0,218.0,217.0,217.0,210.0,216.0,209.0,208.0,208.0,208.0,0.0,0.0,0.0,0.0,0.0,0.0,0.0,0.0,0.0,0.0,0.0,48.0,48.0,47.0,47.0,46.0,46.0,46.0,45.0,46.0,45.0,45.0,45.0,45.0,45.0,45.0,46.0,45.0,45.0,45.0,46.0,46.0,46.0,46.0,47.0,47.0,47.0,48.0,49.0,49.0,49.0,49.0,49.0,49.0,49.0,50.0,50.0,50.0,50.0,50.0,49.0,50.0,50.0,50.0,50.0,50.0,50.0,50.0,50.0,50.0,50.0,50.0,50.0,49.0,49.0,50.0,50.0,50.0,50.0,51.0,50.0,50.0,50.0,49.0,50.0,50.0,50.0,50.0,51.0,51.0,52.0,52.0,52.0,53.0,52.0,52.0,53.0,53.0,53.0,53.0,54.0,0.0,0.0,0.0,0.0,0.0,0.0,117.0,115.0,115.0,117.0,115.0,117.0,115.0,115.0,117.0,115.0,115.0,115.0,116.0,116.0,116.0,116.0,116.0,116.0,193.0,193.0,194.0,189.0,189.0,190.0,190.0,190.0,190.0,191.0,186.0,187.0,187.0,188.0,184.0,184.0,181.0,181.0,182.0,182.0,178.0,179.0,179.0,180.0,181.0,177.0,174.0,174.0,174.0,175.0,175.0,172.0,172.0,172.0,173.0,173.0,173.0,173.0,174.0,174.0,174.0,174.0,174.0,174.0,174.0,175.0,175.0,178.0,178.0,182.0,182.0,186.0,186.0,186.0,187.0,187.0,183.0,183.0,179.0,184.0,184.0,180.0,180.0,180.0,181.0,177.0,178.0,178.0,178.0,175.0,176.0,176.0,177.0,177.0,0.0,0.0,0.0,0.0,0.0,0.0,0.0,0.0
0.0,0.0,59.0,59.0,58.0,58.0,57.0,58.0,57.0,57.0,57.0,57.0,57.0,57.0,58.0,58.0,58.0,58.0,58.0,58.0,59.0,58.0,65.0,65.0,65.0,65.0,0.0,0.0,0.0,0.0,0.0,0.0,0.0,69.0,70.0,70.0,69.0,75.0,75.0,75.0,74.0,74.0,74.0,74.0,60.0,75.0,59.0,59.0,59.0,59.0,60.0,59.0,59.0,59.0,60.0,59.0,0.0,0.0,0.0,0.0,0.0,0.0,0.0,0.0,0.0,0.0,55.0,56.0,55.0,55.0,55.0,55.0,55.0,55.0,0.0,0.0,75.0,75.0,75.0,75.0,76.0,76.0,76.0,76.0,76.0,75.0,75.0,75.0,75.0,75.0,74.0,74.0,203.0,214.0,209.0,209.0,209.0,210.0,210.0,210.0,210.0,210.0,209.0,209.0,209.0,209.0,214.0,208.0,208.0,213.0,213.0,213.0,212.0,212.0,218.0,211.0,211.0,210.0,210.0,209.0,209.0,203.0,203.0,0.0,0.0,0.0,0.0,0.0,0.0,0.0,0.0,0.0,0.0,0.0,48.0,48.0,47.0,47.0,47.0,47.0,46.0,45.0,46.0,45.0,45.0,45.0,45.0,45.0,45.0,45.0,45.0,45.0,45.0,46.0,45.0,46.0,46.0,47.0,47.0,47.0,48.0,48.0,48.0,49.0,49.0,49.0,49.0,50.0,50.0,50.0,50.0,50.0,50.0,50.0,50.0,50.0,50.0,50.0,50.0,50.0,50.0,50.0,50.0,50.0,50.0,50.0,49.0,50.0,50.0,50.0,50.0,50.0,51.0,50.0,50.0,50.0,49.0,50.0,50.0,50.0,50.0,51.0,51.0,52.0,52.0,52.0,52.0,52.0,52.0,53.0,53.0,53.0,52.0,54.0,0.0,0.0,0.0,0.0,0.0,0.0,0.0,0.0,117.0,117.0,117.0,117.0,115.0,115.0,113.0,115.0,115.0,116.0,115.0,116.0,116.0,116.0,116.0,116.0,189.0,189.0,189.0,190.0,190.0,190.0,190.0,190.0,190.0,191.0,186.0,187.0,188.0,188.0,184.0,185.0,181.0,182.0,182.0,183.0,179.0,179.0,180.0,180.0,181.0,181.0,178.0,179.0,179.0,175.0,175.0,172.0,172.0,173.0,173.0,173.0,173.0,174.0,174.0,174.0,174.0,175.0,175.0,175.0,175.0,175.0,175.0,179.0,179.0,182.0,183.0,187.0,187.0,187.0,187.0,187.0,187.0,183.0,183.0,187.0,184.0,184.0,180.0,181.0,181.0,177.0,177.0,177.0,178.0,175.0,176.0,176.0,177.0,177.0,0.0,0.0,0.0,0.0,0.0,0.0,0.0,0.0
0.0,0.0,59.0,59.0,58.0,58.0,58.0,57.0,57.0,57.0,56.0,57.0,56.0,56.0,57.0,57.0,58.0,58.0,58.0,58.0,59.0,58.0,58.0,65.0,65.0,65.0,0.0,0.0,0.0,0.0,0.0,0.0,0.0,0.0,0.0,0.0,60.0,61.0,60.0,61.0,61.0,61.0,61.0,59.0,60.0,59.0,60.0,59.0,59.0,59.0,59.0,59.0,59.0,59.0,59.0,59.0,59.0,0.0,0.0,0.0,0.0,0.0,0.0,0.0,0.0,56.0,55.0,56.0,55.0,55.0,55.0,55.0,55.0,55.0,0.0,77.0,77.0,76.0,76.0,76.0,76.0,76.0,76.0,76.0,76.0,75.0,75.0,75.0,75.0,74.0,74.0,73.0,203.0,203.0,209.0,209.0,209.0,210.0,210.0,210.0,210.0,210.0,210.0,209.0,209.0,209.0,215.0,208.0,208.0,213.0,207.0,213.0,213.0,212.0,212.0,212.0,211.0,210.0,210.0,209.0,209.0,203.0,203.0,208.0,0.0,0.0,0.0,0.0,0.0,0.0,0.0,0.0,0.0,0.0,48.0,48.0,47.0,47.0,47.0,47.0,46.0,45.0,46.0,45.0,45.0,45.0,45.0,45.0,45.0,45.0,45.0,45.0,45.0,46.0,46.0,46.0,46.0,47.0,47.0,47.0,48.0,48.0,48.0,49.0,49.0,49.0,49.0,50.0,50.0,50.0,50.0,50.0,50.0,50.0,50.0,50.0,49.0,50.0,50.0,50.0,50.0,50.0,50.0,50.0,50.0,50.0,49.0,49.0,50.0,50.0,50.0,50.0,50.0,50.0,50.0,50.0,49.0,50.0,49.0,50.0,50.0,51.0,51.0,52.0,52.0,52.0,52.0,52.0,52.0,52.0,53.0,53.0,53.0,53.0,0.0,0.0,0.0,0.0,0.0,0.0,0.0,0.0,117.0,117.0,115.0,115.0,115.0,115.0,113.0,114.0,116.0,116.0,116.0,116.0,116.0,116.0,116.0,116.0,189.0,189.0,189.0,190.0,190.0,186.0,186.0,186.0,186.0,187.0,187.0,187.0,184.0,184.0,184.0,181.0,182.0,182.0,183.0,183.0,180.0,180.0,181.0,177.0,181.0,182.0,179.0,179.0,175.0,176.0,172.0,172.0,173.0,173.0,173.0,174.0,174.0,174.0,174.0,175.0,175.0,175.0,175.0,175.0,175.0,175.0,179.0,179.0,183.0,183.0,183.0,187.0,187.0,187.0,187.0,187.0,187.0,187.0,188.0,188.0,188.0,188.0,184.0,181.0,181.0,181.0,178.0,178.0,175.0,175.0,176.0,176.0,177.0,0.0,0.0,0.0,0.0,0.0,0.0,0.0,0.0,0.0
0.0,0.0,0.0,58.0,58.0,58.0,57.0,58.0,57.0,57.0,56.0,56.0,56.0,56.0,56.0,57.0,58.0,58.0,58.0,58.0,59.0,58.0,58.0,58.0,64.0,64.0,0.0,0.0,62.0,62.0,62.0,0.0,0.0,0.0,0.0,0.0,60.0,61.0,60.0,60.0,60.0,60.0,61.0,60.0,60.0,60.0,60.0,59.0,59.0,59.0,59.0,59.0,59.0,59.0,60.0,59.0,59.0,0.0,0.0,0.0,0.0,0.0,0.0,0.0,0.0,55.0,55.0,55.0,55.0,55.0,55.0,55.0,55.0,0.0,0.0,0.0,77.0,76.0,76.0,76.0,76.0,76.0,76.0,76.0,76.0,76.0,75.0,75.0,75.0,74.0,73.0,73.0,198.0,204.0,203.0,210.0,210.0,210.0,210.0,210.0,210.0,210.0,210.0,209.0,215.0,209.0,215.0,214.0,214.0,214.0,207.0,207.0,213.0,213.0,212.0,212.0,211.0,211.0,210.0,209.0,209.0,203.0,203.0,208.0,0.0,0.0,0.0,0.0,0.0,0.0,0.0,0.0,0.0,0.0,48.0,48.0,47.0,47.0,47.0,46.0,46.0,45.0,46.0,45.0,45.0,45.0,46.0,45.0,45.0,45.0,45.0,45.0,45.0,46.0,45.0,46.0,46.0,47.0,47.0,46.0,48.0,48.0,48.0,49.0,49.0,49.0,49.0,50.0,50.0,50.0,50.0,50.0,50.0,50.0,50.0,50.0,50.0,50.0,50.0,50.0,50.0,50.0,50.0,50.0,50.0,50.0,49.0,49.0,50.0,51.0,50.0,50.0,50.0,50.0,50.0,50.0,49.0,50.0,49.0,50.0,50.0,51.0,51.0,52.0,52.0,52.0,52.0,52.0,52.0,52.0,52.0,52.0,52.0,53.0,0.0,0.0,0.0,0.0,0.0,0.0,0.0,119.0,117.0,117.0,117.0,117.0,113.0,115.0,113.0,114.0,116.0,116.0,116.0,116.0,116.0,116.0,117.0,117.0,189.0,190.0,190.0,190.0,190.0,190.0,186.0,187.0,187.0,187.0,183.0,183.0,184.0,185.0,181.0,182.0,182.0,183.0,183.0,184.0,180.0,181.0,181.0,178.0,178.0,179.0,175.0,176.0,176.0,172.0,173.0,173.0,173.0,173.0,174.0,174.0,174.0,175.0,175.0,175.0,175.0,176.0,175.0,175.0,175.0,175.0,179.0,179.0,183.0,188.0,187.0,188.0,188.0,188.0,187.0,187.0,187.0,187.0,188.0,188.0,113.0,188.0,113.0,113.0,113.0,115.0,115.0,115.0,0.0,0.0,0.0,0.0,0.0,0.0,0.0,0.0,0.0,0.0,0.0,0.0,0.0,0.0
