2755.0,2801.0,2847.0,2847.0,2895.0,2895.0,2895.0,2945.0,2945.0,2997.0,2997.0,3050.0,3050.0,3050.0,3050.0,3106.0,3106.0,3106.0,3106.0,3163.0,3163.0,3163.0,3163.0,3163.0,3223.0,3163.0,3223.0,3223.0,3285.0,3285.0,3285.0,3285.0,3285.0,3285.0,3285.0,3285.0,3349.0,3349.0,3349.0,3349.0,3349.0,3349.0,0.0,0.0,0.0,0.0,0.0,0.0,0.0,0.0,0.0,0.0,0.0,0.0,0.0,0.0,0.0,0.0,0.0,0.0,0.0,0.0,914.0,914.0,826.0,826.0,822.0,822.0,822.0,818.0,814.0,810.0,810.0,806.0,806.0,806.0,802.0,799.0,799.0,799.0,795.0,795.0,795.0,795.0,795.0,791.0,795.0,795.0,795.0,795.0,795.0,1036.0,1024.0,1024.0,1017.0,1011.0,1005.0,1000.0,994.0,994.0,982.0,982.0,977.0,977.0,971.0,966.0,960.0,955.0,955.0,950.0,950.0,950.0,944.0,939.0,939.0,934.0,934.0,934.0,934.0,934.0,929.0,929.0,929.0,929.0,929.0,924.0,924.0,924.0,924.0,924.0,924.0,924.0,924.0,919.0,919.0,919.0,919.0,919.0,919.0,914.0,914.0,914.0,914.0,914.0,914.0,914.0,914.0,919.0,919.0,924.0,929.0,929.0,929.0,934.0,934.0,939.0,944.0,950.0,955.0,955.0,960.0,960.0,966.0,966.0,977.0,982.0,982.0,982.0,988.0,994.0,994.0,994.0,1017.0,1024.0,1024.0,1030.0,1030.0,1030.0,1036.0,1036.0,1062.0,1075.0,1075.0,1075.0,1082.0,1082.0,1082.0,1089.0,1089.0,1089.0,1082.0,1082.0,1075.0,1075.0,1068.0,1062.0,1062.0,1055.0,1055.0,1055.0,1055.0,1049.0,1049.0,1049.0,1049.0,1049.0,1042.0,1036.0,1036.0,1036.0,1030.0,1030.0,1024.0,1024.0,1017.0,1011.0,1011.0,1005.0,1005.0,1000.0,1005.0,1000.0,1000.0,1000.0,988.0,988.0,988.0,982.0,982.0,977.0,977.0,977.0,971.0,966.0,966.0,966.0,960.0,960.0,960.0,960.0,960.0,0.0,0.0,0.0,0.0,0.0,2441.0,2441.0,2406.0,2406.0,2406.0,2309.0,2309.0,2309.0,2309.0,2278.0,2278.0,2278.0,2248.0,2248.0,2219.0,2219.0,2191.0,2191.0,2163.0,2163.0,2163.0,2136.0,2136.0,2110.0,2084.0,2084.0,2059.0,2059.0,2034.0,2010.0,1987.0,1964.0,1964.0,1942.0,1920.0,1920.0,1899.0,1878.0,1878.0,1878.0,1858.0,1838.0,1818.0,1818.0,1818.0,1799.0,1799.0,1780.0,1762.0,1744.0,1744.0,1726.0,1726.0,1726.0,1692.0,1692.0,1676.0,1676.0,1676.0,1659.0,1659.0,1659.0,1643.0,1628.0,1612.0,1612.0,0.0,0.0,0.0,0.0,0.0,0.0,0.0,0.0
2712.0,2755.0,2801.0,2847.0,2847.0,2895.0,2895.0,2945.0,2945.0,2997.0,2997.0,2997.0,3050.0,3050.0,3050.0,3106.0,3106.0,3106.0,3106.0,3163.0,3106.0,3163.0,3163.0,3163.0,3163.0,3163.0,3163.0,3223.0,3285.0,3285.0,3285.0,3285.0,3285.0,3285.0,3285.0,3349.0,3349.0,3349.0,3349.0,3349.0,3349.0,3349.0,0.0,0.0,0.0,0.0,0.0,0.0,0.0,0.0,0.0,0.0,0.0,0.0,0.0,0.0,0.0,0.0,0.0,0.0,0.0,0.0,0.0,830.0,826.0,826.0,822.0,822.0,822.0,818.0,814.0,810.0,810.0,806.0,806.0,806.0,802.0,802.0,799.0,802.0,799.0,799.0,795.0,795.0,795.0,795.0,795.0,795.0,795.0,795.0,1042.0,1036.0,1030.0,1024.0,1024.0,1011.0,1005.0,1000.0,994.0,994.0,988.0,988.0,977.0,977.0,971.0,966.0,960.0,955.0,955.0,950.0,950.0,950.0,944.0,939.0,934.0,934.0,934.0,934.0,934.0,929.0,929.0,929.0,929.0,929.0,924.0,924.0,924.0,924.0,924.0,924.0,919.0,919.0,919.0,919.0,914.0,914.0,914.0,914.0,914.0,914.0,914.0,914.0,914.0,914.0,914.0,914.0,914.0,914.0,919.0,919.0,924.0,929.0,929.0,929.0,929.0,934.0,939.0,950.0,955.0,955.0,960.0,966.0,966.0,966.0,971.0,977.0,977.0,982.0,988.0,994.0,994.0,1000.0,1017.0,1024.0,1024.0,1024.0,1030.0,1030.0,1030.0,1036.0,1068.0,1075.0,1075.0,1075.0,1075.0,1082.0,1082.0,1089.0,1103.0,1103.0,1089.0,1082.0,1082.0,1075.0,1068.0,1062.0,1062.0,1062.0,1055.0,1055.0,1055.0,1055.0,1049.0,1049.0,1049.0,1049.0,1042.0,1042.0,1036.0,1036.0,1030.0,1024.0,1024.0,1024.0,1017.0,1011.0,1011.0,1005.0,1005.0,1000.0,1000.0,1005.0,1000.0,1000.0,994.0,988.0,988.0,988.0,982.0,982.0,977.0,977.0,971.0,971.0,966.0,966.0,966.0,960.0,966.0,966.0,960.0,0.0,0.0,0.0,0.0,0.0,2441.0,2441.0,2406.0,2406.0,2406.0,2309.0,2309.0,2309.0,2309.0,2278.0,2278.0,2278.0,2248.0,2248.0,2219.0,2219.0,2191.0,2191.0,2163.0,2163.0,2163.0,2136.0,2136.0,2110.0,2084.0,2084.0,2059.0,2059.0,2034.0,2010.0,1987.0,1964.0,1964.0,1942.0,1920.0,1899.0,1899.0,1878.0,1878.0,1878.0,1858.0,1838.0,1818.0,1818.0,1799.0,1799.0,1799.0,1762.0,1762.0,1744.0,1744.0,1726.0,1726.0,1726.0,1709.0,1692.0,1676.0,1676.0,1676.0,1659.0,1659.0,1659.0,1643.0,1628.0,1612.0,1612.0,0.0,0.0,0.0,0.0,0.0,0.0,0.0,0.0
2712.0,2755.0,2801.0,2847.0,2847.0,2895.0,2895.0,2945.0,2945.0,2997.0,2997.0,2997.0,3050.0,3050.0,3050.0,3106.0,3106.0,3106.0,3106.0,3106.0,3106.0,3163.0,3163.0,3163.0,3223.0,3163.0,3223.0,3223.0,3223.0,3285.0,3285.0,3285.0,3285.0,3285.0,3285.0,3349.0,3349.0,3349.0,3349.0,3349.0,3349.0,3349.0,0.0,0.0,0.0,0.0,0.0,0.0,0.0,0.0,0.0,0.0,0.0,0.0,0.0,0.0,0.0,0.0,0.0,826.0,826.0,826.0,826.0,826.0,826.0,822.0,822.0,822.0,822.0,818.0,814.0,810.0,810.0,806.0,806.0,806.0,802.0,802.0,802.0,802.0,799.0,799.0,799.0,799.0,799.0,795.0,795.0,799.0,795.0,795.0,1042.0,1036.0,1030.0,1030.0,1024.0,1017.0,1011.0,1005.0,1000.0,994.0,988.0,982.0,977.0,977.0,971.0,966.0,960.0,960.0,955.0,955.0,950.0,950.0,944.0,939.0,934.0,934.0,934.0,934.0,934.0,929.0,929.0,929.0,929.0,924.0,924.0,924.0,919.0,924.0,924.0,919.0,919.0,919.0,919.0,914.0,914.0,914.0,914.0,914.0,914.0,914.0,914.0,914.0,914.0,914.0,914.0,914.0,914.0,914.0,914.0,919.0,924.0,929.0,929.0,929.0,929.0,934.0,939.0,950.0,955.0,955.0,960.0,960.0,960.0,966.0,966.0,977.0,977.0,982.0,988.0,994.0,994.0,994.0,1011.0,1017.0,1024.0,1024.0,1024.0,1030.0,1030.0,1030.0,1055.0,1068.0,1068.0,1068.0,1075.0,1082.0,1082.0,1103.0,1110.0,1110.0,1110.0,1103.0,1089.0,1062.0,1075.0,1062.0,1062.0,1062.0,1055.0,1055.0,1055.0,1055.0,1049.0,1049.0,1049.0,1049.0,1049.0,1042.0,1042.0,1036.0,1036.0,1030.0,1024.0,1024.0,1017.0,1024.0,1011.0,1005.0,1005.0,1000.0,1000.0,1005.0,1005.0,1000.0,1000.0,994.0,994.0,988.0,988.0,982.0,982.0,977.0,977.0,971.0,971.0,966.0,966.0,960.0,0.0,0.0,0.0,0.0,0.0,0.0,0.0,0.0,0.0,0.0,0.0,0.0,2373.0,2309.0,2309.0,2309.0,2309.0,2278.0,2278.0,2278.0,2248.0,2248.0,2219.0,2219.0,2191.0,2191.0,2191.0,2163.0,2163.0,2136.0,2136.0,2110.0,2084.0,2084.0,2059.0,2059.0,2034.0,1987.0,1987.0,1964.0,1964.0,1942.0,1920.0,1899.0,1899.0,1899.0,1878.0,1878.0,1858.0,1858.0,1838.0,1818.0,1818.0,1799.0,1799.0,1780.0,1762.0,1744.0,1744.0,1744.0,1726.0,1726.0,1709.0,1709.0,1692.0,1676.0,1676.0,1659.0,1659.0,1659.0,1643.0,1628.0,1612.0,1612.0,0.0,0.0,0.0,0.0,0.0,0.0,0.0,0.0
2712.0,2712.0,2755.0,2801.0,2847.0,2847.0,2895.0,2997.0,2997.0,3050.0,2997.0,3050.0,3050.0,3050.0,3050.0,3050.0,3106.0,3106.0,3106.0,3106.0,3106.0,3106.0,3163.0,3163.0,3163.0,3163.0,3163.0,3223.0,3223.0,3285.0,3285.0,3285.0,3285.0,3285.0,3285.0,3349.0,3349.0,3349.0,3349.0,3349.0,3349.0,0.0,0.0,0.0,0.0,0.0,0.0,0.0,0.0,0.0,0.0,0.0,0.0,0.0,0.0,0.0,0.0,0.0,0.0,826.0,826.0,826.0,826.0,826.0,826.0,822.0,822.0,822.0,818.0,818.0,814.0,810.0,810.0,806.0,806.0,806.0,802.0,802.0,802.0,802.0,802.0,802.0,802.0,802.0,799.0,799.0,799.0,799.0,795.0,799.0,1036.0,1030.0,1024.0,1030.0,1024.0,1017.0,1011.0,1005.0,1000.0,994.0,988.0,982.0,977.0,977.0,971.0,966.0,966.0,960.0,960.0,955.0,950.0,950.0,939.0,939.0,939.0,934.0,934.0,934.0,934.0,934.0,929.0,929.0,929.0,924.0,924.0,919.0,919.0,919.0,919.0,919.0,919.0,914.0,914.0,914.0,914.0,914.0,914.0,914.0,914.0,914.0,914.0,914.0,909.0,909.0,914.0,909.0,909.0,914.0,914.0,919.0,924.0,929.0,929.0,929.0,929.0,934.0,939.0,944.0,955.0,955.0,960.0,960.0,960.0,960.0,960.0,966.0,966.0,982.0,988.0,988.0,994.0,988.0,1000.0,1011.0,1017.0,1024.0,1024.0,1030.0,1030.0,1030.0,1055.0,1062.0,1062.0,1068.0,1075.0,1082.0,1082.0,1103.0,1110.0,1110.0,1110.0,1110.0,1140.0,0.0,1082.0,1068.0,1062.0,1062.0,1062.0,1055.0,1055.0,1055.0,1049.0,1049.0,1049.0,1049.0,1049.0,1042.0,1042.0,1036.0,1030.0,1030.0,1024.0,1024.0,1017.0,1011.0,1011.0,1005.0,1005.0,1000.0,1000.0,1005.0,1005.0,1000.0,1000.0,994.0,994.0,994.0,994.0,988.0,982.0,982.0,977.0,977.0,971.0,971.0,966.0,0.0,0.0,0.0,0.0,0.0,0.0,0.0,0.0,0.0,0.0,0.0,0.0,0.0,0.0,0.0,0.0,2309.0,2309.0,2278.0,2278.0,2278.0,2278.0,2248.0,2219.0,2219.0,2191.0,2191.0,2191.0,2163.0,2163.0,2136.0,2136.0,2110.0,2084.0,2084.0,2059.0,2034.0,2010.0,1987.0,1987.0,1964.0,1964.0,1942.0,1920.0,1899.0,1899.0,1899.0,1878.0,1878.0,1858.0,1858.0,1818.0,1818.0,1818.0,1799.0,1799.0,1780.0,1762.0,1762.0,1744.0,1744.0,1726.0,1726.0,1709.0,1709.0,1692.0,1676.0,1676.0,1676.0,1659.0,1659.0,1643.0,1628.0,1612.0,1612.0,0.0,0.0,0.0,0.0,0.0,0.0,0.0,0.0
2712.0,2755.0,2755.0,2801.0,2801.0,2847.0,2895.0,2945.0,2945.0,2997.0,2997.0,2997.0,3050.0,3050.0,3050.0,3106.0,3106.0,3106.0,3106.0,3106.0,3106.0,3106.0,3163.0,3163.0,3163.0,3163.0,3163.0,3223.0,3223.0,3285.0,3285.0,3285.0,3285.0,3285.0,3285.0,3285.0,3285.0,3285.0,3285.0,3285.0,0.0,0.0,0.0,0.0,0.0,0.0,0.0,0.0,0.0,0.0,0.0,0.0,0.0,0.0,0.0,0.0,0.0,0.0,0.0,826.0,830.0,830.0,830.0,826.0,826.0,822.0,822.0,822.0,818.0,814.0,810.0,810.0,806.0,806.0,806.0,806.0,806.0,802.0,802.0,806.0,802.0,802.0,802.0,802.0,802.0,799.0,802.0,799.0,795.0,1030.0,1030.0,1030.0,1024.0,1030.0,1024.0,1017.0,1011.0,1011.0,1005.0,1000.0,988.0,988.0,982.0,977.0,971.0,966.0,960.0,960.0,960.0,955.0,950.0,950.0,944.0,939.0,939.0,939.0,934.0,934.0,934.0,929.0,929.0,929.0,924.0,924.0,919.0,919.0,919.0,919.0,914.0,914.0,914.0,914.0,914.0,914.0,914.0,914.0,914.0,914.0,914.0,914.0,909.0,914.0,914.0,909.0,909.0,909.0,909.0,914.0,914.0,919.0,924.0,929.0,929.0,929.0,929.0,929.0,934.0,939.0,950.0,955.0,960.0,960.0,955.0,955.0,960.0,960.0,960.0,977.0,994.0,988.0,988.0,988.0,988.0,1011.0,1017.0,1024.0,1024.0,1030.0,1030.0,1030.0,1049.0,1055.0,1055.0,1062.0,1055.0,1055.0,1055.0,1117.0,1117.0,1117.0,1117.0,1117.0,1125.0,0.0,0.0,0.0,0.0,0.0,1062.0,1055.0,1055.0,1055.0,1049.0,1049.0,1049.0,1049.0,1049.0,1042.0,1042.0,1042.0,1036.0,1030.0,1024.0,1024.0,1017.0,1011.0,1011.0,1005.0,1005.0,1005.0,1000.0,1000.0,1005.0,1005.0,1000.0,1000.0,1000.0,1000.0,994.0,994.0,988.0,982.0,977.0,0.0,0.0,0.0,0.0,0.0,0.0,0.0,0.0,0.0,0.0,0.0,0.0,0.0,0.0,0.0,0.0,0.0,0.0,0.0,0.0,0.0,0.0,2278.0,2278.0,2278.0,2278.0,2248.0,2248.0,2219.0,2191.0,2191.0,2191.0,2163.0,2163.0,2163.0,2136.0,2110.0,2084.0,2084.0,2059.0,2034.0,2010.0,1987.0,1987.0,1964.0,1964.0,1942.0,1920.0,1899.0,1899.0,1899.0,1878.0,1878.0,1858.0,1858.0,1818.0,1818.0,1799.0,1799.0,1799.0,1780.0,1762.0,1762.0,1744.0,1744.0,1744.0,1726.0,1726.0,1709.0,1692.0,1676.0,1676.0,1676.0,1659.0,1659.0,1643.0,1628.0,1612.0,1612.0,0.0,0.0,0.0,0.0,0.0,0.0,0.0,0.0
2712.0,2712.0,2755.0,2755.0,2801.0,2801.0,2847.0,2895.0,2945.0,2997.0,2997.0,2997.0,2997.0,3050.0,3050.0,3050.0,3050.0,3106.0,3106.0,3106.0,3106.0,3106.0,3163.0,3163.0,3163.0,3163.0,3163.0,3223.0,3223.0,3285.0,3285.0,3285.0,3285.0,3285.0,3285.0,3285.0,3285.0,3285.0,3285.0,3285.0,0.0,0.0,0.0,0.0,0.0,0.0,0.0,0.0,0.0,0.0,0.0,0.0,0.0,0.0,0.0,0.0,0.0,838.0,834.0,830.0,830.0,830.0,830.0,826.0,826.0,822.0,822.0,822.0,818.0,814.0,810.0,810.0,810.0,806.0,806.0,806.0,806.0,806.0,806.0,806.0,806.0,806.0,806.0,806.0,806.0,810.0,1024.0,1024.0,1024.0,1024.0,1030.0,1030.0,1024.0,1024.0,1024.0,1017.0,1011.0,1005.0,1000.0,994.0,988.0,988.0,977.0,971.0,971.0,966.0,960.0,960.0,955.0,955.0,950.0,950.0,944.0,939.0,939.0,939.0,934.0,934.0,929.0,929.0,929.0,929.0,924.0,924.0,919.0,919.0,919.0,914.0,914.0,914.0,914.0,914.0,914.0,914.0,909.0,909.0,909.0,909.0,914.0,909.0,909.0,909.0,909.0,909.0,909.0,909.0,909.0,914.0,919.0,919.0,924.0,929.0,929.0,929.0,929.0,929.0,934.0,934.0,944.0,950.0,955.0,955.0,955.0,955.0,955.0,955.0,955.0,966.0,988.0,982.0,988.0,988.0,988.0,1011.0,1017.0,1017.0,1024.0,1024.0,1030.0,1030.0,1036.0,1055.0,1055.0,1055.0,1055.0,1049.0,1055.0,1117.0,1117.0,1125.0,1117.0,1117.0,1117.0,1117.0,0.0,0.0,0.0,0.0,1075.0,0.0,0.0,0.0,1055.0,1055.0,1055.0,1055.0,1049.0,1049.0,1042.0,1042.0,1042.0,1030.0,1024.0,1017.0,1030.0,1024.0,1024.0,1011.0,1005.0,1005.0,1000.0,1000.0,1005.0,1005.0,1005.0,1005.0,1000.0,1000.0,1000.0,1000.0,994.0,988.0,982.0,0.0,0.0,0.0,0.0,0.0,0.0,0.0,0.0,0.0,0.0,1401.0,1401.0,1401.0,1401.0,0.0,0.0,0.0,1390.0,1390.0,1390.0,0.0,0.0,0.0,0.0,2309.0,2278.0,2248.0,2248.0,2219.0,2191.0,2191.0,2163.0,2163.0,2163.0,2136.0,2136.0,2084.0,2084.0,2059.0,2059.0,2034.0,2010.0,1987.0,1987.0,1964.0,1964.0,1964.0,1942.0,1899.0,1899.0,1878.0,1878.0,1858.0,1838.0,1838.0,1818.0,1818.0,1799.0,1799.0,1799.0,1780.0,1762.0,1762.0,1744.0,1744.0,1744.0,1726.0,1726.0,1709.0,1692.0,1692.0,1676.0,1676.0,1659.0,1643.0,1628.0,1628.0,1612.0,1612.0,0.0,0.0,0.0,0.0,0.0,0.0,0.0,0.0
2712.0,2712.0,2755.0,2755.0,2801.0,2801.0,2847.0,2895.0,2895.0,2945.0,2945.0,2945.0,2997.0,3050.0,3050.0,3050.0,3050.0,3106.0,3106.0,3106.0,3106.0,3106.0,3106.0,3163.0,3163.0,3223.0,3223.0,3223.0,3223.0,3285.0,3285.0,3285.0,3285.0,3285.0,3285.0,3285.0,3285.0,3285.0,3285.0,3285.0,0.0,0.0,0.0,0.0,0.0,0.0,0.0,0.0,0.0,0.0,0.0,0.0,0.0,0.0,0.0,0.0,0.0,838.0,834.0,834.0,830.0,826.0,826.0,826.0,826.0,822.0,822.0,822.0,818.0,814.0,814.0,810.0,810.0,810.0,810.0,806.0,810.0,806.0,810.0,810.0,810.0,810.0,810.0,810.0,810.0,1024.0,1024.0,1024.0,1024.0,1024.0,1030.0,1030.0,1024.0,1024.0,1024.0,1017.0,1011.0,1005.0,1005.0,1000.0,994.0,988.0,977.0,971.0,971.0,960.0,960.0,955.0,955.0,955.0,950.0,950.0,944.0,944.0,939.0,939.0,939.0,934.0,929.0,929.0,929.0,924.0,924.0,919.0,919.0,914.0,914.0,914.0,914.0,914.0,914.0,914.0,914.0,914.0,909.0,909.0,909.0,909.0,909.0,909.0,909.0,909.0,909.0,909.0,909.0,909.0,909.0,914.0,914.0,919.0,919.0,924.0,924.0,929.0,929.0,929.0,934.0,934.0,939.0,950.0,955.0,955.0,955.0,955.0,955.0,955.0,955.0,960.0,971.0,977.0,982.0,982.0,982.0,1000.0,1011.0,1017.0,1017.0,1024.0,1030.0,1030.0,1036.0,1049.0,1055.0,1055.0,1055.0,1049.0,1049.0,1125.0,1125.0,1125.0,1125.0,1117.0,1125.0,1117.0,0.0,0.0,0.0,0.0,1075.0,0.0,0.0,0.0,0.0,0.0,1055.0,1055.0,1049.0,1049.0,1042.0,1042.0,1042.0,1030.0,1024.0,1024.0,1017.0,1017.0,1030.0,1011.0,1024.0,1024.0,1017.0,1017.0,1011.0,1005.0,1005.0,1005.0,1000.0,1000.0,1000.0,1000.0,994.0,994.0,1390.0,1390.0,0.0,0.0,0.0,0.0,0.0,1401.0,1401.0,1401.0,1401.0,1401.0,1390.0,1390.0,1390.0,1390.0,1390.0,1390.0,1390.0,1390.0,1390.0,1390.0,1401.0,0.0,0.0,0.0,0.0,0.0,2219.0,2191.0,2191.0,2191.0,2163.0,2163.0,2163.0,2136.0,2110.0,2084.0,2084.0,2059.0,2059.0,2034.0,2010.0,1987.0,1987.0,1964.0,1964.0,1964.0,1942.0,1899.0,1899.0,1878.0,1878.0,1858.0,1838.0,1818.0,1818.0,1818.0,1799.0,1799.0,1799.0,1780.0,1762.0,1762.0,1744.0,1744.0,1744.0,1726.0,1726.0,1709.0,1692.0,1692.0,1676.0,1676.0,1659.0,1659.0,1643.0,1628.0,1612.0,1612.0,0.0,0.0,0.0,0.0,0.0,0.0,0.0,0.0
2712.0,2712.0,2755.0,2755.0,2801.0,2801.0,2847.0,2895.0,2895.0,2945.0,2945.0,2945.0,2997.0,2997.0,2997.0,3050.0,3050.0,3106.0,3106.0,3106.0,3106.0,3106.0,3106.0,3106.0,3163.0,3163.0,3163.0,3223.0,3223.0,3223.0,3223.0,3223.0,3285.0,3285.0,3285.0,3285.0,3285.0,3285.0,3285.0,0.0,0.0,0.0,0.0,0.0,0.0,0.0,0.0,0.0,0.0,0.0,0.0,0.0,0.0,0.0,0.0,0.0,842.0,838.0,838.0,834.0,830.0,826.0,826.0,826.0,826.0,822.0,822.0,822.0,818.0,818.0,814.0,810.0,810.0,810.0,810.0,810.0,810.0,810.0,810.0,810.0,810.0,810.0,810.0,810.0,814.0,1024.0,1024.0,1024.0,1024.0,1024.0,1024.0,1024.0,1024.0,1024.0,1024.0,1017.0,1011.0,1005.0,1005.0,1000.0,994.0,988.0,977.0,971.0,966.0,960.0,960.0,955.0,955.0,955.0,950.0,950.0,950.0,950.0,944.0,944.0,939.0,934.0,934.0,929.0,929.0,924.0,914.0,914.0,914.0,914.0,914.0,914.0,914.0,914.0,914.0,914.0,909.0,909.0,909.0,909.0,909.0,909.0,909.0,909.0,909.0,909.0,909.0,909.0,909.0,909.0,909.0,909.0,914.0,914.0,914.0,919.0,919.0,924.0,924.0,924.0,934.0,934.0,939.0,944.0,955.0,955.0,955.0,955.0,955.0,955.0,955.0,960.0,960.0,966.0,977.0,982.0,982.0,988.0,1005.0,1011.0,1017.0,1017.0,1024.0,1030.0,1030.0,1049.0,1049.0,1049.0,1049.0,1042.0,1042.0,0.0,1132.0,1132.0,1125.0,1125.0,1125.0,1125.0,0.0,0.0,0.0,0.0,0.0,0.0,0.0,0.0,0.0,0.0,0.0,0.0,1055.0,1055.0,1049.0,1042.0,1042.0,1030.0,1024.0,1024.0,1017.0,1017.0,1011.0,1011.0,1024.0,1024.0,1024.0,1017.0,1011.0,1011.0,1005.0,1005.0,1005.0,1000.0,1000.0,1000.0,1000.0,994.0,1378.0,1378.0,0.0,0.0,0.0,1390.0,1390.0,1390.0,1390.0,1390.0,1390.0,1390.0,1390.0,1390.0,1390.0,1390.0,1390.0,1390.0,1390.0,1390.0,1390.0,1390.0,0.0,0.0,0.0,0.0,0.0,0.0,0.0,2191.0,2191.0,2163.0,2163.0,2163.0,2136.0,2110.0,2084.0,2084.0,2059.0,2059.0,2059.0,2034.0,2010.0,1987.0,1987.0,1964.0,1964.0,1964.0,1942.0,1920.0,1899.0,1878.0,1878.0,1858.0,1838.0,1818.0,1818.0,1799.0,1799.0,1799.0,1799.0,1780.0,1762.0,1762.0,1744.0,1744.0,1744.0,1726.0,1726.0,1709.0,1692.0,1692.0,1676.0,1676.0,1659.0,1659.0,1628.0,1628.0,1612.0,1612.0,0.0,0.0,0.0,0.0,0.0,0.0,0.0,0.0
2712.0,2712.0,2712.0,2755.0,2755.0,2801.0,2847.0,2895.0,2895.0,2895.0,2945.0,2945.0,2945.0,2997.0,2997.0,3050.0,3050.0,3106.0,3106.0,3106.0,3106.0,3106.0,3106.0,3106.0,3163.0,3163.0,3163.0,3223.0,3223.0,3223.0,3223.0,3223.0,3223.0,3285.0,3285.0,3285.0,3285.0,3285.0,0.0,0.0,0.0,0.0,0.0,0.0,0.0,0.0,0.0,0.0,0.0,0.0,0.0,0.0,0.0,0.0,0.0,0.0,842.0,838.0,838.0,834.0,834.0,830.0,830.0,826.0,826.0,822.0,822.0,822.0,822.0,818.0,818.0,814.0,810.0,810.0,810.0,810.0,810.0,810.0,810.0,810.0,814.0,814.0,814.0,814.0,814.0,1024.0,1024.0,1024.0,1024.0,1024.0,1024.0,1024.0,1024.0,1024.0,1024.0,1011.0,1011.0,1005.0,1000.0,994.0,994.0,977.0,977.0,971.0,966.0,966.0,960.0,960.0,955.0,955.0,955.0,950.0,950.0,950.0,944.0,944.0,939.0,934.0,929.0,929.0,924.0,914.0,914.0,909.0,914.0,914.0,914.0,914.0,914.0,914.0,914.0,909.0,909.0,909.0,909.0,909.0,909.0,909.0,909.0,909.0,909.0,909.0,909.0,909.0,909.0,909.0,909.0,909.0,909.0,914.0,914.0,919.0,919.0,919.0,924.0,929.0,934.0,934.0,939.0,944.0,955.0,950.0,950.0,955.0,950.0,955.0,955.0,955.0,960.0,960.0,977.0,977.0,982.0,988.0,1005.0,1011.0,1011.0,1017.0,1024.0,1024.0,1030.0,1042.0,1049.0,1042.0,1042.0,1042.0,1042.0,1132.0,1132.0,1132.0,1132.0,1125.0,1125.0,3795.0,3795.0,3795.0,0.0,0.0,0.0,0.0,0.0,0.0,0.0,0.0,0.0,1055.0,1062.0,1055.0,1049.0,1042.0,1042.0,1030.0,1024.0,1024.0,1024.0,1024.0,1017.0,1017.0,1024.0,1024.0,1024.0,1024.0,1017.0,1011.0,1011.0,1005.0,1005.0,1005.0,1005.0,1000.0,1000.0,0.0,1378.0,1378.0,1367.0,0.0,0.0,1378.0,1390.0,1390.0,1390.0,1390.0,1390.0,1390.0,1390.0,1390.0,1390.0,1378.0,1378.0,1378.0,1390.0,1390.0,1390.0,1378.0,1390.0,0.0,0.0,0.0,0.0,0.0,0.0,0.0,2191.0,2163.0,2163.0,2163.0,2136.0,2110.0,2084.0,2084.0,2059.0,2059.0,2059.0,2034.0,2010.0,1987.0,1987.0,1964.0,1964.0,1964.0,1942.0,1920.0,1899.0,1878.0,1878.0,1858.0,1838.0,1818.0,1818.0,1799.0,1799.0,1799.0,1799.0,1780.0,1762.0,1762.0,1744.0,1744.0,1744.0,1726.0,1726.0,1709.0,1692.0,1692.0,1676.0,1676.0,1659.0,1659.0,1643.0,1628.0,1612.0,1612.0,0.0,0.0,0.0,0.0,0.0,0.0,0.0,0.0
2712.0,2712.0,2755.0,2755.0,2801.0,2801.0,2847.0,2895.0,2895.0,2895.0,2895.0,2945.0,2945.0,2997.0,2997.0,3050.0,3050.0,3106.0,3106.0,3106.0,3106.0,3106.0,3163.0,3163.0,3163.0,3163.0,3163.0,3163.0,3223.0,3223.0,3223.0,3223.0,3223.0,3223.0,3285.0,3285.0,0.0,0.0,0.0,0.0,0.0,0.0,0.0,0.0,0.0,0.0,0.0,0.0,0.0,0.0,0.0,0.0,0.0,0.0,0.0,846.0,842.0,838.0,838.0,838.0,834.0,830.0,830.0,826.0,826.0,826.0,822.0,822.0,822.0,822.0,818.0,814.0,814.0,814.0,814.0,814.0,814.0,814.0,814.0,814.0,818.0,818.0,818.0,818.0,818.0,1024.0,1024.0,1024.0,1017.0,1024.0,1024.0,1024.0,1024.0,1017.0,1017.0,1011.0,1011.0,1000.0,1000.0,982.0,982.0,977.0,977.0,971.0,971.0,966.0,960.0,955.0,955.0,955.0,955.0,950.0,950.0,950.0,944.0,934.0,939.0,934.0,929.0,914.0,914.0,914.0,914.0,909.0,914.0,914.0,914.0,914.0,914.0,909.0,909.0,909.0,909.0,909.0,909.0,909.0,909.0,909.0,909.0,909.0,909.0,909.0,904.0,904.0,909.0,909.0,904.0,909.0,909.0,914.0,914.0,914.0,919.0,919.0,924.0,929.0,934.0,934.0,939.0,944.0,950.0,950.0,950.0,950.0,950.0,955.0,955.0,955.0,960.0,960.0,971.0,977.0,977.0,982.0,1000.0,1011.0,1017.0,1017.0,1024.0,1024.0,1030.0,1036.0,1042.0,1042.0,1042.0,1042.0,0.0,1132.0,1132.0,1132.0,1132.0,1125.0,3881.0,3795.0,3795.0,3881.0,0.0,0.0,0.0,0.0,0.0,0.0,0.0,0.0,0.0,0.0,0.0,0.0,0.0,1049.0,0.0,1030.0,1030.0,1030.0,1024.0,1024.0,1024.0,1017.0,1024.0,1024.0,1024.0,1024.0,1017.0,1005.0,1005.0,1000.0,1000.0,1000.0,1005.0,1005.0,0.0,0.0,1390.0,1390.0,1378.0,1378.0,1378.0,1378.0,1378.0,1378.0,1390.0,1378.0,1390.0,1378.0,1378.0,1378.0,1378.0,1378.0,1378.0,1378.0,1378.0,1378.0,1378.0,1378.0,1378.0,0.0,0.0,0.0,0.0,0.0,0.0,0.0,0.0,2163.0,2163.0,2163.0,2136.0,2110.0,2084.0,2084.0,2059.0,2059.0,2059.0,2034.0,2010.0,1987.0,1987.0,1964.0,1964.0,1964.0,1942.0,1920.0,1899.0,1878.0,1878.0,1858.0,1838.0,1818.0,1818.0,1818.0,1799.0,1799.0,1799.0,1780.0,1780.0,1762.0,1744.0,1744.0,1744.0,1726.0,1726.0,1709.0,1692.0,1676.0,1676.0,1676.0,1659.0,1659.0,1643.0,1628.0,1612.0,1612.0,0.0,0.0,0.0,0.0,0.0,0.0,0.0,0.0
2712.0,2712.0,2755.0,2801.0,2801.0,2847.0,2847.0,2895.0,2895.0,2895.0,2895.0,2945.0,2945.0,2997.0,2945.0,2997.0,3050.0,3050.0,3106.0,3106.0,3106.0,3106.0,3106.0,3106.0,3106.0,3106.0,3106.0,3163.0,3163.0,3163.0,3163.0,3163.0,3223.0,3223.0,3223.0,3285.0,0.0,0.0,0.0,0.0,0.0,0.0,0.0,0.0,0.0,0.0,0.0,0.0,0.0,0.0,0.0,0.0,0.0,0.0,850.0,846.0,842.0,842.0,838.0,838.0,834.0,830.0,830.0,826.0,826.0,826.0,822.0,822.0,822.0,818.0,818.0,814.0,814.0,814.0,814.0,818.0,818.0,818.0,818.0,822.0,818.0,822.0,822.0,822.0,1024.0,1024.0,1024.0,1017.0,1017.0,1017.0,1017.0,1017.0,1017.0,1017.0,1017.0,1011.0,1011.0,1000.0,1000.0,988.0,982.0,977.0,977.0,971.0,966.0,960.0,955.0,955.0,955.0,950.0,944.0,950.0,950.0,934.0,934.0,934.0,929.0,934.0,919.0,914.0,914.0,914.0,914.0,909.0,914.0,914.0,914.0,914.0,914.0,909.0,909.0,909.0,909.0,909.0,909.0,909.0,909.0,909.0,909.0,909.0,904.0,904.0,904.0,904.0,904.0,904.0,904.0,909.0,909.0,909.0,914.0,914.0,914.0,919.0,919.0,924.0,929.0,934.0,939.0,939.0,950.0,950.0,950.0,950.0,950.0,955.0,955.0,955.0,955.0,960.0,971.0,971.0,977.0,982.0,994.0,1005.0,1011.0,1017.0,1024.0,1024.0,1024.0,1036.0,1036.0,1036.0,1042.0,1042.0,0.0,3971.0,3971.0,3971.0,3971.0,3881.0,3881.0,3795.0,3881.0,3881.0,3881.0,3881.0,0.0,0.0,0.0,0.0,0.0,0.0,0.0,0.0,0.0,0.0,0.0,0.0,0.0,0.0,1030.0,0.0,0.0,0.0,1024.0,1024.0,1030.0,1024.0,1024.0,1024.0,1017.0,1005.0,1005.0,1000.0,1005.0,1005.0,1005.0,0.0,0.0,0.0,1390.0,1378.0,1367.0,1378.0,1367.0,1367.0,1378.0,1378.0,1378.0,1378.0,1378.0,1378.0,1367.0,1378.0,1367.0,1367.0,1367.0,1367.0,1367.0,1367.0,1367.0,1367.0,1367.0,0.0,0.0,0.0,0.0,0.0,0.0,0.0,0.0,0.0,2163.0,2136.0,2110.0,2110.0,2084.0,2084.0,2059.0,2059.0,2059.0,2034.0,2010.0,1987.0,1987.0,1964.0,1964.0,1964.0,1942.0,1920.0,1899.0,1878.0,1878.0,1858.0,1838.0,1818.0,1818.0,1818.0,1799.0,1799.0,1799.0,1780.0,1780.0,1762.0,1744.0,1744.0,1744.0,1726.0,1726.0,1709.0,1692.0,1676.0,1676.0,1676.0,1659.0,1659.0,1643.0,1628.0,1612.0,1612.0,0.0,0.0,0.0,0.0,0.0,0.0,0.0,0.0
2712.0,2712.0,2755.0,2801.0,2801.0,2847.0,2847.0,2895.0,2895.0,2895.0,2895.0,2895.0,2945.0,2997.0,2945.0,2997.0,2997.0,3050.0,3050.0,3050.0,3106.0,3106.0,3106.0,3106.0,3106.0,3106.0,3106.0,3106.0,3106.0,3163.0,3163.0,3163.0,3163.0,3163.0,3223.0,0.0,0.0,0.0,0.0,0.0,0.0,0.0,0.0,0.0,0.0,0.0,0.0,0.0,0.0,0.0,0.0,0.0,0.0,0.0,850.0,846.0,842.0,842.0,838.0,838.0,834.0,830.0,830.0,826.0,826.0,826.0,822.0,822.0,822.0,822.0,818.0,818.0,818.0,818.0,818.0,822.0,822.0,822.0,822.0,822.0,822.0,822.0,822.0,822.0,1024.0,1024.0,1024.0,1024.0,1017.0,1017.0,1017.0,1024.0,1017.0,1017.0,1017.0,1011.0,1005.0,1000.0,994.0,988.0,982.0,977.0,971.0,971.0,966.0,960.0,955.0,955.0,950.0,950.0,944.0,944.0,950.0,934.0,934.0,929.0,929.0,924.0,919.0,914.0,914.0,914.0,914.0,909.0,914.0,914.0,914.0,914.0,909.0,909.0,909.0,909.0,909.0,909.0,909.0,909.0,909.0,909.0,909.0,909.0,904.0,904.0,904.0,900.0,904.0,904.0,904.0,904.0,909.0,909.0,909.0,914.0,914.0,919.0,919.0,924.0,929.0,929.0,934.0,934.0,944.0,944.0,950.0,950.0,950.0,950.0,955.0,955.0,955.0,960.0,960.0,966.0,971.0,971.0,1011.0,1017.0,1017.0,1017.0,1024.0,1024.0,1024.0,1030.0,1036.0,1036.0,1036.0,0.0,0.0,3971.0,3971.0,3881.0,3971.0,3881.0,3881.0,3795.0,3881.0,3881.0,3881.0,3881.0,3795.0,3795.0,0.0,0.0,0.0,0.0,0.0,0.0,0.0,0.0,0.0,0.0,0.0,0.0,0.0,0.0,0.0,0.0,0.0,0.0,1030.0,1030.0,1030.0,1024.0,0.0,1005.0,1005.0,1000.0,1005.0,0.0,0.0,0.0,0.0,0.0,1378.0,1378.0,1367.0,1367.0,1367.0,1367.0,1367.0,1367.0,1367.0,1367.0,1378.0,1367.0,1367.0,1367.0,1367.0,1367.0,1367.0,1367.0,1367.0,1357.0,1357.0,1357.0,1357.0,1357.0,0.0,0.0,0.0,0.0,0.0,0.0,0.0,0.0,0.0,0.0,2110.0,2084.0,2084.0,2084.0,2059.0,2059.0,2059.0,2034.0,2010.0,1987.0,1987.0,1964.0,1964.0,1942.0,1942.0,1899.0,1899.0,1878.0,1878.0,1858.0,1838.0,1818.0,1818.0,1818.0,1799.0,1799.0,1799.0,1780.0,1780.0,1762.0,1744.0,1744.0,1726.0,1726.0,1726.0,1709.0,1692.0,1676.0,1676.0,1659.0,1659.0,1659.0,1643.0,1628.0,1628.0,1612.0,0.0,0.0,0.0,0.0,0.0,0.0,0.0,0.0
2712.0,2712.0,2712.0,2755.0,2801.0,2847.0,2847.0,2895.0,2895.0,2895.0,2895.0,2895.0,2895.0,2945.0,2945.0,2997.0,2997.0,3050.0,3050.0,3050.0,3050.0,3106.0,3106.0,3106.0,3106.0,3106.0,3106.0,3106.0,3106.0,3106.0,3163.0,3163.0,3163.0,3163.0,0.0,0.0,0.0,0.0,0.0,0.0,0.0,0.0,0.0,0.0,0.0,0.0,0.0,0.0,0.0,0.0,0.0,0.0,0.0,0.0,850.0,842.0,842.0,842.0,838.0,838.0,834.0,830.0,830.0,826.0,826.0,826.0,822.0,822.0,822.0,822.0,822.0,822.0,822.0,822.0,822.0,822.0,822.0,822.0,826.0,826.0,822.0,826.0,822.0,826.0,1017.0,1024.0,1017.0,1017.0,1017.0,1017.0,1017.0,1017.0,1017.0,1017.0,1017.0,1005.0,1000.0,1000.0,994.0,988.0,982.0,977.0,971.0,966.0,966.0,955.0,955.0,955.0,950.0,950.0,944.0,944.0,939.0,934.0,934.0,929.0,929.0,924.0,929.0,914.0,914.0,914.0,919.0,909.0,914.0,914.0,914.0,909.0,909.0,909.0,909.0,904.0,904.0,904.0,904.0,904.0,909.0,909.0,909.0,909.0,904.0,900.0,900.0,900.0,900.0,900.0,900.0,904.0,904.0,909.0,909.0,914.0,914.0,914.0,919.0,924.0,929.0,929.0,934.0,934.0,944.0,944.0,944.0,950.0,950.0,950.0,950.0,955.0,955.0,955.0,960.0,960.0,966.0,966.0,960.0,1011.0,1017.0,1017.0,1017.0,1017.0,1017.0,1024.0,1030.0,1030.0,1030.0,0.0,0.0,3971.0,3881.0,3881.0,3881.0,3881.0,3881.0,3795.0,3881.0,3881.0,3881.0,3881.0,3795.0,3795.0,0.0,3881.0,0.0,0.0,0.0,0.0,0.0,0.0,0.0,0.0,0.0,0.0,0.0,0.0,0.0,0.0,0.0,0.0,0.0,0.0,0.0,0.0,0.0,1005.0,1005.0,1000.0,0.0,0.0,0.0,0.0,0.0,0.0,1378.0,1378.0,1367.0,1367.0,1357.0,1357.0,1357.0,1357.0,1357.0,1357.0,1367.0,1367.0,1357.0,1367.0,1367.0,1367.0,1367.0,1367.0,1357.0,1357.0,1357.0,1357.0,1357.0,1357.0,1357.0,1357.0,0.0,0.0,0.0,0.0,0.0,0.0,0.0,0.0,2110.0,2084.0,2084.0,2059.0,2059.0,2059.0,2059.0,2034.0,2010.0,1987.0,1987.0,1964.0,1964.0,1942.0,1920.0,1899.0,1878.0,1878.0,1858.0,1858.0,1838.0,1838.0,1818.0,1818.0,1818.0,1818.0,1799.0,1799.0,1780.0,1762.0,1744.0,1744.0,1726.0,1726.0,1726.0,1709.0,1692.0,1676.0,1676.0,1676.0,1659.0,1659.0,1643.0,1643.0,1628.0,1612.0,0.0,0.0,0.0,0.0,0.0,0.0,0.0,0.0
2712.0,2712.0,2755.0,2801.0,2801.0,2847.0,2847.0,2895.0,2895.0,2895.0,2895.0,2895.0,2895.0,2945.0,2945.0,2997.0,2997.0,3050.0,3050.0,3050.0,3050.0,3106.0,3106.0,3106.0,3050.0,3106.0,3106.0,3106.0,3106.0,3106.0,3106.0,3106.0,3106.0,3106.0,3106.0,0.0,0.0,0.0,0.0,0.0,0.0,0.0,0.0,0.0,0.0,0.0,0.0,0.0,0.0,0.0,0.0,0.0,0.0,855.0,846.0,842.0,842.0,842.0,838.0,838.0,834.0,834.0,830.0,826.0,826.0,826.0,826.0,822.0,822.0,822.0,822.0,822.0,822.0,822.0,826.0,826.0,826.0,826.0,826.0,830.0,826.0,826.0,826.0,826.0,1017.0,1017.0,1017.0,1017.0,1017.0,1017.0,1017.0,1017.0,1017.0,1017.0,1017.0,1005.0,1000.0,994.0,994.0,982.0,982.0,977.0,971.0,966.0,960.0,955.0,955.0,950.0,950.0,950.0,944.0,939.0,939.0,934.0,929.0,929.0,929.0,924.0,919.0,914.0,914.0,914.0,914.0,914.0,909.0,909.0,909.0,909.0,909.0,909.0,909.0,904.0,904.0,904.0,909.0,909.0,909.0,909.0,909.0,909.0,904.0,900.0,900.0,900.0,900.0,900.0,900.0,900.0,904.0,904.0,909.0,909.0,914.0,914.0,914.0,919.0,924.0,924.0,929.0,929.0,939.0,939.0,939.0,944.0,950.0,950.0,950.0,955.0,955.0,955.0,955.0,955.0,960.0,960.0,960.0,960.0,1017.0,1017.0,1017.0,1017.0,1017.0,1024.0,1030.0,1030.0,1030.0,0.0,3881.0,3881.0,3795.0,3795.0,3881.0,3795.0,3795.0,3795.0,3795.0,3881.0,3881.0,3881.0,3881.0,3881.0,3881.0,3971.0,3881.0,3971.0,3971.0,3971.0,3971.0,0.0,0.0,0.0,0.0,0.0,0.0,0.0,0.0,0.0,0.0,0.0,0.0,0.0,0.0,0.0,0.0,0.0,0.0,0.0,0.0,0.0,0.0,0.0,0.0,0.0,1367.0,1367.0,1367.0,1367.0,1357.0,1357.0,1357.0,1357.0,1357.0,1357.0,1357.0,1357.0,1357.0,1357.0,1357.0,1357.0,1357.0,1357.0,1357.0,1357.0,1357.0,1357.0,1357.0,1357.0,1357.0,1346.0,1346.0,1357.0,0.0,0.0,0.0,0.0,0.0,0.0,2084.0,2084.0,2084.0,2059.0,2059.0,2059.0,2059.0,2034.0,2010.0,1987.0,1987.0,1964.0,1964.0,1942.0,1920.0,1899.0,1878.0,1878.0,1858.0,1838.0,1838.0,1838.0,1818.0,1818.0,1818.0,1818.0,1799.0,1780.0,1762.0,1762.0,1744.0,1744.0,1726.0,1726.0,1726.0,1709.0,1692.0,1676.0,1676.0,1676.0,1659.0,1659.0,1659.0,1643.0,1628.0,1628.0,0.0,0.0,0.0,0.0,0.0,0.0,0.0,0.0
2669.0,2712.0,2712.0,2801.0,2801.0,2847.0,2847.0,2895.0,2895.0,2895.0,2895.0,2895.0,2895.0,2945.0,2945.0,2945.0,2997.0,2997.0,2997.0,3050.0,3050.0,3050.0,3050.0,3050.0,3050.0,3050.0,3106.0,3106.0,3106.0,3106.0,3106.0,3106.0,3106.0,3106.0,3106.0,0.0,0.0,0.0,0.0,0.0,0.0,0.0,0.0,0.0,0.0,0.0,0.0,0.0,0.0,0.0,0.0,0.0,0.0,855.0,846.0,842.0,842.0,842.0,838.0,838.0,834.0,834.0,830.0,826.0,826.0,826.0,826.0,822.0,822.0,822.0,822.0,822.0,826.0,826.0,830.0,830.0,830.0,830.0,830.0,830.0,830.0,830.0,0.0,1011.0,1011.0,1017.0,1017.0,1017.0,1017.0,1017.0,1017.0,1017.0,1017.0,1017.0,1017.0,1011.0,1005.0,1000.0,994.0,982.0,977.0,977.0,971.0,971.0,966.0,955.0,955.0,950.0,950.0,950.0,939.0,939.0,934.0,934.0,929.0,929.0,924.0,924.0,919.0,914.0,914.0,914.0,914.0,914.0,914.0,909.0,909.0,909.0,909.0,909.0,909.0,904.0,904.0,904.0,904.0,909.0,909.0,900.0,909.0,909.0,904.0,900.0,900.0,895.0,895.0,895.0,895.0,900.0,900.0,900.0,904.0,909.0,909.0,914.0,914.0,914.0,919.0,924.0,924.0,924.0,934.0,939.0,939.0,939.0,944.0,950.0,950.0,950.0,950.0,955.0,955.0,955.0,955.0,960.0,960.0,960.0,1017.0,1017.0,1017.0,1017.0,1011.0,1024.0,1024.0,1024.0,1024.0,1024.0,1024.0,3881.0,3795.0,3795.0,3795.0,3795.0,3795.0,3795.0,3881.0,3881.0,3881.0,3881.0,3881.0,3881.0,3881.0,3971.0,3881.0,3881.0,3881.0,3881.0,3881.0,3971.0,3971.0,3971.0,3971.0,3971.0,0.0,0.0,0.0,0.0,0.0,0.0,0.0,0.0,0.0,0.0,0.0,0.0,0.0,0.0,0.0,0.0,0.0,0.0,0.0,0.0,1367.0,1367.0,1357.0,1357.0,1357.0,1357.0,1346.0,1346.0,1346.0,1346.0,1357.0,1357.0,1357.0,1357.0,1357.0,1357.0,1357.0,1357.0,1357.0,1357.0,1357.0,1346.0,1346.0,1346.0,1346.0,1346.0,1346.0,1346.0,1357.0,0.0,0.0,0.0,0.0,0.0,2084.0,2084.0,2084.0,2059.0,2059.0,2059.0,2059.0,2034.0,2010.0,1987.0,1987.0,1964.0,1964.0,1942.0,1920.0,1899.0,1878.0,1878.0,1858.0,1838.0,1838.0,1838.0,1818.0,1818.0,1818.0,1818.0,1799.0,1799.0,1780.0,1762.0,1744.0,1744.0,1726.0,1726.0,1726.0,1709.0,1692.0,1676.0,1676.0,1676.0,1659.0,1659.0,1659.0,1643.0,1628.0,1628.0,0.0,0.0,0.0,0.0,0.0,0.0,0.0,0.0
2669.0,2669.0,2712.0,2755.0,2801.0,2847.0,2847.0,2847.0,2847.0,2895.0,2895.0,2895.0,2895.0,2945.0,2945.0,2945.0,2997.0,2997.0,2997.0,2997.0,3050.0,3050.0,3050.0,3050.0,3050.0,3050.0,3106.0,3106.0,3106.0,3106.0,3106.0,3106.0,3106.0,3106.0,0.0,0.0,0.0,0.0,0.0,0.0,0.0,0.0,0.0,0.0,0.0,0.0,0.0,0.0,0.0,0.0,0.0,0.0,855.0,855.0,850.0,846.0,842.0,842.0,838.0,838.0,838.0,834.0,830.0,830.0,826.0,826.0,826.0,826.0,826.0,826.0,826.0,826.0,826.0,830.0,834.0,834.0,834.0,830.0,834.0,834.0,834.0,830.0,0.0,1011.0,1011.0,1011.0,1017.0,1017.0,1017.0,1017.0,1017.0,1017.0,1017.0,1017.0,1017.0,1011.0,1005.0,1000.0,994.0,988.0,982.0,977.0,971.0,966.0,960.0,955.0,955.0,950.0,950.0,944.0,939.0,939.0,934.0,929.0,929.0,929.0,924.0,924.0,919.0,914.0,914.0,914.0,914.0,914.0,914.0,909.0,909.0,909.0,909.0,909.0,904.0,904.0,904.0,904.0,904.0,909.0,909.0,900.0,909.0,909.0,904.0,900.0,900.0,895.0,895.0,895.0,895.0,895.0,900.0,900.0,904.0,904.0,909.0,909.0,914.0,914.0,919.0,919.0,924.0,924.0,934.0,934.0,934.0,939.0,939.0,939.0,939.0,944.0,944.0,950.0,950.0,950.0,955.0,955.0,955.0,955.0,960.0,1017.0,1017.0,1017.0,1017.0,1011.0,1017.0,1024.0,1024.0,1024.0,0.0,3795.0,3795.0,3795.0,3881.0,3795.0,3712.0,3795.0,3881.0,3881.0,3881.0,3881.0,3881.0,3881.0,3971.0,3881.0,3881.0,3881.0,3881.0,3881.0,3881.0,3971.0,3971.0,3971.0,3971.0,3971.0,3971.0,3971.0,3971.0,0.0,0.0,0.0,0.0,0.0,0.0,0.0,0.0,0.0,0.0,0.0,0.0,0.0,1390.0,1378.0,0.0,1367.0,1367.0,1367.0,1357.0,1357.0,1357.0,1346.0,1346.0,1346.0,1346.0,1346.0,1346.0,1346.0,1357.0,1357.0,1357.0,1357.0,1357.0,1357.0,1357.0,1346.0,1346.0,1346.0,1346.0,1346.0,1346.0,1346.0,1346.0,1346.0,1346.0,1357.0,0.0,0.0,0.0,0.0,0.0,2084.0,2059.0,2059.0,2059.0,2059.0,2034.0,2010.0,1987.0,1987.0,1964.0,1964.0,1942.0,1942.0,1920.0,1899.0,1878.0,1878.0,1858.0,1838.0,1838.0,1838.0,1818.0,1818.0,1818.0,1799.0,1799.0,1799.0,1780.0,1762.0,1744.0,1744.0,1744.0,1726.0,1726.0,1726.0,1709.0,1692.0,1676.0,1676.0,1659.0,1659.0,1659.0,1643.0,1628.0,1628.0,0.0,0.0,0.0,0.0,0.0,0.0,0.0,0.0
2669.0,2669.0,2712.0,2755.0,2801.0,2847.0,2847.0,2847.0,2847.0,2895.0,2895.0,2895.0,2895.0,2945.0,2945.0,2945.0,2997.0,2997.0,2997.0,2997.0,3050.0,3050.0,3050.0,3050.0,3050.0,3050.0,3106.0,3106.0,3106.0,3106.0,3106.0,3106.0,3106.0,3106.0,0.0,0.0,0.0,0.0,0.0,0.0,0.0,0.0,0.0,0.0,0.0,0.0,0.0,0.0,0.0,0.0,0.0,0.0,855.0,855.0,850.0,846.0,846.0,842.0,838.0,838.0,838.0,834.0,830.0,830.0,826.0,826.0,826.0,826.0,826.0,826.0,830.0,830.0,834.0,834.0,838.0,838.0,838.0,838.0,838.0,838.0,838.0,0.0,0.0,1005.0,1011.0,1011.0,1017.0,1017.0,1017.0,1017.0,1017.0,1017.0,1017.0,1017.0,1017.0,1011.0,1005.0,1000.0,994.0,988.0,982.0,977.0,971.0,966.0,960.0,955.0,955.0,950.0,944.0,944.0,939.0,939.0,934.0,929.0,929.0,924.0,924.0,924.0,919.0,914.0,914.0,914.0,914.0,914.0,914.0,914.0,909.0,909.0,909.0,909.0,904.0,904.0,904.0,900.0,900.0,909.0,909.0,900.0,909.0,909.0,904.0,900.0,900.0,895.0,895.0,895.0,895.0,895.0,900.0,900.0,900.0,909.0,909.0,909.0,909.0,914.0,919.0,919.0,924.0,924.0,929.0,934.0,934.0,934.0,934.0,939.0,934.0,939.0,939.0,944.0,950.0,950.0,955.0,955.0,955.0,955.0,955.0,1024.0,1017.0,1017.0,1017.0,1011.0,1017.0,1017.0,1017.0,1011.0,1011.0,3795.0,3795.0,3795.0,3881.0,3795.0,3795.0,3881.0,3881.0,3881.0,3881.0,3881.0,3881.0,3971.0,3971.0,3881.0,3881.0,3881.0,3881.0,3971.0,3971.0,3971.0,3971.0,3971.0,3971.0,3971.0,3971.0,3971.0,0.0,0.0,0.0,0.0,0.0,0.0,0.0,0.0,0.0,0.0,0.0,0.0,0.0,0.0,1390.0,1378.0,1378.0,1367.0,1357.0,1367.0,1357.0,1357.0,1357.0,1346.0,1346.0,1346.0,1346.0,1346.0,1346.0,1346.0,1346.0,1357.0,1357.0,1357.0,1357.0,1357.0,1346.0,1346.0,1346.0,1335.0,1335.0,1335.0,1335.0,1335.0,1335.0,1346.0,1346.0,1346.0,0.0,0.0,0.0,0.0,2084.0,2084.0,2059.0,2059.0,2059.0,2059.0,2034.0,2010.0,1987.0,1987.0,1964.0,1964.0,1942.0,1942.0,1920.0,1899.0,1878.0,1878.0,1858.0,1838.0,1838.0,1818.0,1818.0,1818.0,1818.0,1799.0,1799.0,1780.0,1780.0,1762.0,1744.0,1744.0,1726.0,1726.0,1726.0,1709.0,1709.0,1692.0,1676.0,1676.0,1676.0,1659.0,1659.0,1643.0,1628.0,1628.0,0.0,0.0,0.0,0.0,0.0,0.0,0.0,0.0
2669.0,2669.0,2669.0,2712.0,2755.0,2847.0,2847.0,2847.0,2895.0,2895.0,2895.0,2895.0,2895.0,2945.0,2945.0,2945.0,2997.0,2997.0,2997.0,2997.0,2997.0,3050.0,3050.0,3050.0,3050.0,3050.0,3050.0,3050.0,3050.0,3106.0,3106.0,3106.0,3106.0,3106.0,3106.0,0.0,0.0,0.0,0.0,0.0,0.0,0.0,0.0,0.0,0.0,0.0,0.0,0.0,0.0,0.0,0.0,855.0,855.0,855.0,850.0,850.0,846.0,842.0,842.0,838.0,838.0,834.0,830.0,830.0,830.0,830.0,826.0,826.0,826.0,830.0,830.0,830.0,834.0,834.0,838.0,838.0,838.0,838.0,838.0,842.0,842.0,0.0,0.0,1011.0,1011.0,1011.0,1017.0,1017.0,1017.0,1017.0,1017.0,1017.0,1017.0,1017.0,1017.0,1011.0,1005.0,1000.0,994.0,988.0,982.0,971.0,971.0,966.0,960.0,955.0,955.0,950.0,944.0,944.0,939.0,934.0,934.0,929.0,929.0,924.0,924.0,924.0,919.0,914.0,914.0,914.0,914.0,914.0,914.0,909.0,909.0,909.0,909.0,909.0,904.0,904.0,900.0,900.0,900.0,900.0,900.0,895.0,900.0,900.0,900.0,900.0,895.0,900.0,895.0,895.0,895.0,895.0,900.0,900.0,900.0,900.0,904.0,909.0,909.0,909.0,914.0,914.0,919.0,919.0,924.0,929.0,924.0,924.0,929.0,929.0,929.0,934.0,939.0,939.0,944.0,944.0,950.0,955.0,955.0,955.0,955.0,955.0,1017.0,1017.0,1011.0,1011.0,1011.0,1011.0,1011.0,1011.0,1011.0,1011.0,3795.0,3795.0,3795.0,3712.0,3712.0,3795.0,3795.0,3795.0,3795.0,3881.0,3881.0,3971.0,3971.0,3881.0,3881.0,3881.0,3971.0,3971.0,3971.0,3971.0,3971.0,3971.0,3971.0,4065.0,4065.0,0.0,0.0,0.0,0.0,0.0,0.0,0.0,0.0,0.0,0.0,0.0,0.0,0.0,1390.0,1390.0,1390.0,1378.0,1378.0,1367.0,1367.0,1367.0,1357.0,1357.0,1357.0,1346.0,1346.0,1346.0,1346.0,1346.0,1346.0,1346.0,1346.0,1357.0,1357.0,1357.0,1346.0,1346.0,1346.0,1346.0,1335.0,1335.0,1335.0,1335.0,1335.0,1335.0,1335.0,1346.0,1346.0,1346.0,0.0,0.0,1378.0,1378.0,1390.0,2059.0,2059.0,2059.0,2059.0,2034.0,2034.0,2010.0,1987.0,1987.0,1964.0,1942.0,1942.0,1920.0,1899.0,1899.0,1878.0,1858.0,1838.0,1838.0,1838.0,1818.0,1818.0,1818.0,1799.0,1799.0,1799.0,1780.0,1762.0,1762.0,1744.0,1744.0,1744.0,1726.0,1726.0,1726.0,1709.0,1692.0,1692.0,1676.0,1676.0,1659.0,1659.0,1643.0,1628.0,1628.0,0.0,0.0,0.0,0.0,0.0,0.0,0.0,0.0
2669.0,2669.0,2669.0,2669.0,2712.0,2801.0,2847.0,2847.0,2847.0,2895.0,2895.0,2945.0,2895.0,2945.0,2945.0,2997.0,2997.0,2997.0,2997.0,2945.0,2997.0,2997.0,2997.0,2997.0,2997.0,2997.0,3050.0,3050.0,3050.0,3106.0,3106.0,3106.0,3106.0,3106.0,0.0,0.0,0.0,0.0,0.0,0.0,0.0,0.0,0.0,0.0,0.0,0.0,0.0,0.0,0.0,0.0,0.0,855.0,855.0,855.0,850.0,850.0,846.0,842.0,842.0,838.0,838.0,838.0,834.0,834.0,834.0,830.0,830.0,826.0,830.0,830.0,830.0,834.0,834.0,838.0,838.0,838.0,838.0,838.0,842.0,842.0,0.0,0.0,0.0,0.0,1005.0,1011.0,1017.0,1017.0,1017.0,1017.0,1017.0,1017.0,1017.0,1017.0,1011.0,1011.0,1005.0,1000.0,994.0,988.0,977.0,971.0,971.0,966.0,960.0,955.0,955.0,950.0,944.0,944.0,939.0,934.0,934.0,929.0,929.0,924.0,919.0,924.0,919.0,914.0,914.0,914.0,914.0,914.0,914.0,909.0,909.0,909.0,909.0,904.0,900.0,900.0,895.0,895.0,895.0,895.0,895.0,895.0,895.0,895.0,895.0,895.0,895.0,895.0,895.0,895.0,895.0,895.0,895.0,895.0,900.0,900.0,904.0,909.0,909.0,909.0,914.0,914.0,914.0,914.0,924.0,924.0,924.0,924.0,924.0,924.0,924.0,929.0,934.0,939.0,939.0,944.0,950.0,950.0,950.0,955.0,955.0,955.0,1024.0,1011.0,1005.0,1005.0,1005.0,1011.0,1011.0,1005.0,1011.0,1005.0,3795.0,3795.0,3712.0,3712.0,3712.0,3795.0,3795.0,3795.0,3795.0,3795.0,3881.0,3881.0,3881.0,3881.0,3881.0,3881.0,3971.0,3971.0,3971.0,3971.0,3971.0,3971.0,3971.0,3971.0,3971.0,3971.0,0.0,0.0,0.0,0.0,0.0,0.0,0.0,0.0,0.0,0.0,0.0,0.0,0.0,0.0,1390.0,1378.0,1378.0,1367.0,1367.0,1367.0,1357.0,1357.0,1357.0,1346.0,1346.0,1346.0,1346.0,1346.0,1346.0,1346.0,1346.0,1346.0,1346.0,1346.0,1346.0,1346.0,1346.0,1335.0,1335.0,1335.0,1325.0,1335.0,1335.0,1335.0,1335.0,1346.0,1346.0,1346.0,1357.0,1367.0,1367.0,1378.0,1378.0,2059.0,2059.0,2034.0,2034.0,2034.0,2010.0,2010.0,1987.0,1964.0,1964.0,1942.0,1942.0,1920.0,1899.0,1878.0,1878.0,1858.0,1838.0,1838.0,1818.0,1818.0,1818.0,1818.0,1799.0,1799.0,1799.0,1780.0,1762.0,1762.0,1744.0,1744.0,1744.0,1726.0,1726.0,1726.0,1709.0,1709.0,1692.0,1676.0,1676.0,1659.0,1659.0,1643.0,1643.0,1628.0,0.0,0.0,0.0,0.0,0.0,0.0,0.0,0.0
2669.0,2669.0,2669.0,2712.0,2712.0,2801.0,2801.0,2847.0,2847.0,2895.0,2895.0,2945.0,2895.0,2945.0,2945.0,2945.0,2997.0,2997.0,2997.0,2997.0,2997.0,3050.0,3050.0,3050.0,2997.0,2997.0,3050.0,3050.0,3050.0,3106.0,3106.0,3106.0,3106.0,3106.0,0.0,0.0,0.0,0.0,0.0,0.0,0.0,0.0,0.0,0.0,0.0,0.0,0.0,0.0,0.0,0.0,0.0,855.0,855.0,855.0,850.0,850.0,846.0,846.0,842.0,842.0,838.0,838.0,838.0,838.0,834.0,834.0,834.0,830.0,834.0,834.0,834.0,834.0,838.0,838.0,838.0,838.0,838.0,842.0,0.0,0.0,0.0,0.0,0.0,0.0,1005.0,1005.0,1011.0,1017.0,1017.0,1011.0,1017.0,1017.0,1017.0,1017.0,1011.0,1011.0,1005.0,1000.0,994.0,982.0,977.0,971.0,971.0,966.0,960.0,955.0,950.0,950.0,944.0,939.0,939.0,934.0,934.0,929.0,929.0,924.0,919.0,919.0,919.0,914.0,914.0,914.0,914.0,914.0,914.0,909.0,909.0,909.0,904.0,904.0,900.0,895.0,895.0,895.0,895.0,895.0,895.0,895.0,895.0,895.0,895.0,895.0,895.0,895.0,895.0,895.0,895.0,895.0,895.0,895.0,900.0,900.0,900.0,900.0,904.0,909.0,909.0,914.0,914.0,914.0,919.0,924.0,919.0,924.0,924.0,924.0,924.0,924.0,929.0,934.0,939.0,939.0,944.0,944.0,944.0,950.0,950.0,955.0,955.0,1011.0,1005.0,1005.0,1005.0,1011.0,1011.0,1005.0,1005.0,1005.0,1011.0,3795.0,3712.0,3712.0,3712.0,3795.0,3795.0,3795.0,3795.0,3795.0,3881.0,3971.0,3971.0,3881.0,3881.0,3881.0,3971.0,3971.0,3971.0,3971.0,3971.0,3971.0,3971.0,3971.0,3971.0,3971.0,0.0,0.0,0.0,0.0,0.0,0.0,0.0,0.0,0.0,0.0,0.0,0.0,0.0,0.0,1390.0,1378.0,1378.0,1367.0,1367.0,1367.0,1357.0,1357.0,1357.0,1346.0,1346.0,1346.0,1346.0,1346.0,1346.0,1346.0,1346.0,1346.0,1346.0,1346.0,1346.0,1335.0,1335.0,1335.0,1335.0,1335.0,1335.0,1335.0,1335.0,1346.0,1346.0,1346.0,1346.0,1346.0,1346.0,1346.0,1357.0,1357.0,2059.0,2059.0,2059.0,2034.0,2034.0,2034.0,2010.0,1987.0,1987.0,1964.0,1964.0,1942.0,1942.0,1920.0,1899.0,1899.0,1878.0,1858.0,1838.0,1838.0,1818.0,1818.0,1818.0,1799.0,1799.0,1799.0,1780.0,1780.0,1762.0,1762.0,1744.0,1744.0,1744.0,1726.0,1726.0,1709.0,1709.0,1709.0,1692.0,1676.0,1676.0,1659.0,1659.0,1643.0,1643.0,1628.0,0.0,0.0,0.0,0.0,0.0,0.0,0.0,0.0
2669.0,2669.0,2712.0,2801.0,2801.0,2847.0,2847.0,2847.0,2895.0,2895.0,2895.0,2945.0,2895.0,2895.0,2895.0,2945.0,2945.0,2997.0,2945.0,2997.0,2997.0,2997.0,3050.0,3050.0,3050.0,2997.0,3050.0,3050.0,3050.0,3050.0,3106.0,3050.0,3050.0,3106.0,0.0,0.0,0.0,0.0,0.0,0.0,0.0,0.0,0.0,0.0,0.0,0.0,0.0,0.0,0.0,0.0,859.0,855.0,855.0,855.0,850.0,850.0,846.0,846.0,842.0,842.0,842.0,842.0,842.0,838.0,838.0,838.0,834.0,834.0,838.0,838.0,838.0,834.0,838.0,838.0,838.0,842.0,842.0,842.0,0.0,0.0,0.0,0.0,0.0,0.0,1005.0,1005.0,1011.0,1017.0,1017.0,1017.0,1017.0,1017.0,1017.0,1017.0,1011.0,1011.0,1005.0,1000.0,988.0,982.0,977.0,971.0,971.0,960.0,960.0,955.0,950.0,950.0,944.0,939.0,939.0,934.0,934.0,929.0,929.0,924.0,919.0,919.0,914.0,914.0,914.0,914.0,914.0,909.0,909.0,909.0,909.0,904.0,904.0,904.0,900.0,895.0,895.0,895.0,895.0,895.0,895.0,895.0,895.0,895.0,895.0,895.0,895.0,895.0,895.0,895.0,895.0,895.0,895.0,895.0,895.0,895.0,900.0,900.0,900.0,904.0,909.0,909.0,914.0,914.0,919.0,919.0,919.0,924.0,924.0,924.0,919.0,924.0,929.0,934.0,934.0,939.0,944.0,944.0,944.0,950.0,955.0,960.0,960.0,1017.0,1011.0,1005.0,1005.0,1011.0,1011.0,1011.0,1011.0,1005.0,1005.0,3712.0,3712.0,3712.0,3712.0,3795.0,3795.0,3795.0,3881.0,3881.0,3881.0,3971.0,3971.0,3971.0,3881.0,3881.0,3881.0,3971.0,3971.0,3971.0,3971.0,3971.0,3971.0,3971.0,3971.0,3971.0,0.0,0.0,0.0,0.0,0.0,0.0,0.0,0.0,0.0,0.0,0.0,0.0,0.0,0.0,1390.0,1378.0,1378.0,1378.0,1367.0,1367.0,1357.0,1357.0,1357.0,1346.0,1346.0,1346.0,1346.0,1346.0,1346.0,1346.0,1346.0,1346.0,1346.0,1335.0,1335.0,1335.0,1335.0,1325.0,1325.0,1325.0,1325.0,1335.0,1335.0,1346.0,1346.0,1346.0,1346.0,1346.0,1346.0,1346.0,1357.0,1357.0,2059.0,2059.0,2059.0,2059.0,2034.0,2034.0,2010.0,1987.0,1987.0,1964.0,1964.0,1942.0,1920.0,1920.0,1899.0,1899.0,1878.0,1858.0,1838.0,1838.0,1818.0,1799.0,1799.0,1799.0,1799.0,1799.0,1780.0,1780.0,1762.0,1762.0,1762.0,1744.0,1744.0,1726.0,1726.0,1726.0,1709.0,1692.0,1692.0,1676.0,1676.0,1659.0,1659.0,1643.0,1628.0,1628.0,0.0,0.0,0.0,0.0,0.0,0.0,0.0,0.0
2669.0,2712.0,2712.0,2801.0,2801.0,2847.0,2847.0,2847.0,2847.0,2895.0,2895.0,2895.0,2895.0,2895.0,2895.0,2895.0,2895.0,2945.0,2945.0,2945.0,2997.0,2997.0,2997.0,3050.0,2997.0,2997.0,3050.0,3050.0,3050.0,3050.0,3050.0,3106.0,3106.0,0.0,0.0,0.0,0.0,0.0,0.0,0.0,0.0,0.0,0.0,0.0,0.0,0.0,0.0,0.0,0.0,0.0,859.0,859.0,855.0,855.0,855.0,850.0,850.0,846.0,846.0,842.0,842.0,842.0,842.0,842.0,842.0,838.0,838.0,838.0,838.0,838.0,838.0,838.0,838.0,842.0,842.0,842.0,842.0,850.0,0.0,0.0,0.0,0.0,0.0,0.0,1005.0,1005.0,1011.0,1011.0,1011.0,1011.0,1011.0,1011.0,1011.0,1011.0,1011.0,1005.0,1000.0,1000.0,994.0,982.0,977.0,971.0,971.0,960.0,960.0,955.0,950.0,950.0,944.0,944.0,939.0,934.0,934.0,929.0,924.0,924.0,919.0,919.0,914.0,914.0,914.0,914.0,914.0,909.0,909.0,909.0,904.0,909.0,904.0,900.0,895.0,895.0,895.0,895.0,895.0,895.0,895.0,895.0,895.0,895.0,895.0,895.0,895.0,895.0,895.0,895.0,895.0,895.0,895.0,895.0,895.0,895.0,895.0,895.0,900.0,904.0,904.0,909.0,909.0,914.0,919.0,919.0,919.0,919.0,919.0,924.0,919.0,924.0,924.0,929.0,929.0,939.0,939.0,944.0,944.0,950.0,955.0,960.0,960.0,1011.0,1011.0,1005.0,1005.0,1011.0,1017.0,1011.0,1011.0,1011.0,3712.0,3712.0,3712.0,3712.0,3712.0,3795.0,3795.0,3795.0,3881.0,3881.0,3881.0,3881.0,3971.0,3971.0,3881.0,3881.0,3881.0,3971.0,3971.0,3971.0,3971.0,3971.0,3971.0,3971.0,3971.0,3971.0,0.0,0.0,0.0,0.0,0.0,0.0,0.0,0.0,0.0,0.0,0.0,0.0,0.0,1401.0,1390.0,1390.0,1378.0,1378.0,1367.0,1367.0,1357.0,1357.0,1346.0,1346.0,1346.0,1346.0,1346.0,1346.0,1346.0,1346.0,1346.0,1346.0,1346.0,1335.0,1335.0,1335.0,1335.0,1325.0,1325.0,1325.0,1325.0,1325.0,1325.0,1346.0,1346.0,1346.0,1346.0,1346.0,1346.0,1346.0,1357.0,2084.0,2059.0,2059.0,2059.0,2059.0,2034.0,2034.0,2010.0,1987.0,1987.0,1964.0,1942.0,1920.0,1920.0,1899.0,1899.0,1899.0,1878.0,1858.0,1858.0,1838.0,1818.0,1818.0,1799.0,1799.0,1799.0,1799.0,1799.0,1780.0,1780.0,1762.0,1762.0,1744.0,1744.0,1726.0,1726.0,1726.0,1709.0,1692.0,1692.0,1676.0,1676.0,1659.0,1659.0,1643.0,1643.0,1628.0,0.0,0.0,0.0,0.0,0.0,0.0,0.0,0.0
2669.0,2712.0,2712.0,2801.0,2801.0,2847.0,2801.0,2847.0,2847.0,2847.0,2895.0,2895.0,2895.0,2895.0,2895.0,2895.0,2945.0,2945.0,2945.0,2945.0,2945.0,2997.0,2997.0,2997.0,2997.0,2997.0,3050.0,3050.0,3050.0,3050.0,3050.0,0.0,0.0,0.0,0.0,0.0,0.0,0.0,0.0,0.0,0.0,0.0,0.0,0.0,0.0,0.0,0.0,0.0,0.0,859.0,859.0,859.0,855.0,855.0,855.0,855.0,850.0,850.0,846.0,846.0,846.0,842.0,842.0,842.0,842.0,842.0,842.0,842.0,842.0,842.0,842.0,842.0,842.0,842.0,846.0,846.0,846.0,850.0,0.0,0.0,0.0,0.0,0.0,0.0,1005.0,1005.0,1011.0,1011.0,1011.0,1011.0,1011.0,1011.0,1011.0,1011.0,1005.0,1005.0,1000.0,1000.0,994.0,982.0,977.0,971.0,971.0,960.0,955.0,955.0,950.0,950.0,944.0,944.0,939.0,934.0,934.0,929.0,924.0,919.0,914.0,914.0,914.0,914.0,914.0,914.0,914.0,909.0,909.0,909.0,904.0,904.0,900.0,900.0,895.0,895.0,895.0,895.0,895.0,895.0,895.0,895.0,895.0,895.0,895.0,895.0,895.0,895.0,895.0,895.0,895.0,895.0,895.0,895.0,895.0,895.0,895.0,895.0,900.0,904.0,904.0,904.0,909.0,909.0,919.0,919.0,919.0,919.0,919.0,919.0,919.0,919.0,919.0,924.0,939.0,939.0,939.0,939.0,944.0,950.0,950.0,955.0,960.0,1011.0,1011.0,1005.0,1005.0,1011.0,1011.0,1011.0,1011.0,1011.0,3712.0,3712.0,3712.0,3712.0,3712.0,3795.0,3712.0,3795.0,3795.0,3795.0,3795.0,3881.0,3881.0,3971.0,3881.0,3971.0,3971.0,3971.0,3971.0,3971.0,3971.0,3971.0,3971.0,3971.0,3971.0,3971.0,0.0,0.0,0.0,0.0,0.0,0.0,0.0,0.0,0.0,0.0,0.0,0.0,0.0,1401.0,1390.0,1378.0,1378.0,1367.0,1367.0,1367.0,1357.0,1357.0,1346.0,1346.0,1346.0,1346.0,1346.0,1346.0,1346.0,1335.0,1346.0,1346.0,1346.0,1335.0,1335.0,1335.0,1325.0,1325.0,1325.0,1325.0,1325.0,1325.0,1325.0,1335.0,1346.0,1346.0,1346.0,1346.0,1346.0,1346.0,1357.0,1357.0,2059.0,2059.0,2059.0,2059.0,2034.0,2034.0,2010.0,1987.0,1987.0,1964.0,1942.0,1920.0,1920.0,1899.0,1899.0,1878.0,1878.0,1858.0,1858.0,1838.0,1818.0,1818.0,1799.0,1799.0,1799.0,1799.0,1799.0,1780.0,1780.0,1762.0,1744.0,1744.0,1726.0,1726.0,1726.0,1726.0,1709.0,1709.0,1692.0,1676.0,1676.0,1676.0,1659.0,1659.0,1643.0,1628.0,0.0,0.0,0.0,0.0,0.0,0.0,0.0,0.0
2712.0,2712.0,2712.0,2801.0,2801.0,2847.0,2847.0,2847.0,2847.0,2847.0,2895.0,2895.0,2895.0,2895.0,2895.0,2945.0,2945.0,2945.0,2945.0,2945.0,2945.0,2997.0,2997.0,2997.0,2945.0,2945.0,2997.0,2997.0,2997.0,3050.0,3050.0,0.0,0.0,0.0,0.0,0.0,0.0,0.0,0.0,0.0,0.0,0.0,0.0,0.0,0.0,0.0,0.0,0.0,0.0,863.0,859.0,859.0,859.0,855.0,855.0,855.0,855.0,850.0,846.0,846.0,846.0,846.0,842.0,842.0,842.0,842.0,842.0,842.0,842.0,842.0,842.0,842.0,846.0,850.0,846.0,846.0,0.0,0.0,0.0,0.0,0.0,0.0,0.0,0.0,1000.0,1000.0,1005.0,1011.0,1011.0,1005.0,1005.0,1005.0,1005.0,1005.0,1005.0,1000.0,1000.0,994.0,988.0,982.0,977.0,971.0,971.0,960.0,955.0,955.0,950.0,950.0,944.0,939.0,939.0,934.0,929.0,929.0,924.0,919.0,914.0,914.0,914.0,909.0,909.0,909.0,909.0,909.0,909.0,904.0,904.0,904.0,900.0,900.0,895.0,895.0,895.0,895.0,895.0,895.0,895.0,895.0,895.0,895.0,895.0,895.0,895.0,895.0,895.0,895.0,895.0,895.0,895.0,895.0,895.0,895.0,895.0,895.0,895.0,900.0,904.0,904.0,909.0,909.0,914.0,914.0,914.0,919.0,914.0,919.0,919.0,919.0,919.0,919.0,934.0,939.0,939.0,939.0,944.0,950.0,950.0,955.0,955.0,1011.0,1011.0,1005.0,1011.0,1011.0,1011.0,1011.0,1017.0,1017.0,1030.0,3712.0,3712.0,3712.0,3712.0,3795.0,3795.0,3795.0,3795.0,3795.0,3795.0,3881.0,3881.0,3971.0,3971.0,3971.0,3971.0,3971.0,4065.0,3971.0,3971.0,3971.0,3971.0,3971.0,3971.0,3971.0,0.0,0.0,0.0,0.0,0.0,0.0,0.0,0.0,0.0,0.0,0.0,0.0,0.0,1390.0,1390.0,1378.0,1378.0,1367.0,1367.0,1367.0,1357.0,1357.0,1346.0,1346.0,1346.0,1346.0,1346.0,1346.0,1346.0,1335.0,1335.0,1335.0,1335.0,1335.0,1335.0,1325.0,1325.0,1315.0,1315.0,1325.0,1325.0,1325.0,1325.0,1335.0,1346.0,1346.0,1346.0,1346.0,1346.0,1346.0,1357.0,1346.0,2084.0,2059.0,2059.0,2059.0,2034.0,2034.0,2010.0,1987.0,1987.0,1964.0,1942.0,1920.0,1899.0,1899.0,1899.0,1878.0,1878.0,1858.0,1858.0,1838.0,1818.0,1818.0,1818.0,1799.0,1799.0,1799.0,1799.0,1780.0,1780.0,1762.0,1762.0,1744.0,1744.0,1726.0,1726.0,1726.0,1709.0,1709.0,1709.0,1692.0,1676.0,1676.0,1659.0,1659.0,1643.0,1628.0,0.0,0.0,0.0,0.0,0.0,0.0,0.0,0.0
2712.0,2712.0,2755.0,2801.0,2801.0,2801.0,2801.0,2847.0,2847.0,2847.0,2895.0,2895.0,2895.0,2895.0,2945.0,2945.0,2945.0,2945.0,2945.0,2997.0,2945.0,2945.0,2945.0,2945.0,2945.0,2945.0,2997.0,2997.0,2997.0,3050.0,3050.0,0.0,0.0,0.0,0.0,0.0,0.0,0.0,0.0,0.0,0.0,0.0,0.0,0.0,0.0,0.0,0.0,0.0,0.0,0.0,863.0,859.0,859.0,859.0,855.0,855.0,855.0,850.0,846.0,846.0,846.0,846.0,846.0,846.0,846.0,842.0,846.0,846.0,846.0,846.0,846.0,850.0,855.0,855.0,855.0,0.0,0.0,0.0,0.0,0.0,0.0,0.0,0.0,0.0,1000.0,1000.0,1005.0,1005.0,1005.0,1005.0,1005.0,1005.0,1005.0,1005.0,1000.0,1000.0,1000.0,994.0,988.0,977.0,977.0,971.0,971.0,960.0,955.0,955.0,950.0,944.0,944.0,939.0,939.0,934.0,929.0,929.0,924.0,919.0,914.0,914.0,914.0,914.0,909.0,909.0,909.0,909.0,904.0,904.0,900.0,904.0,900.0,900.0,895.0,895.0,895.0,895.0,895.0,895.0,895.0,895.0,895.0,895.0,895.0,895.0,895.0,895.0,895.0,895.0,895.0,895.0,895.0,895.0,895.0,895.0,890.0,895.0,895.0,900.0,900.0,900.0,904.0,904.0,914.0,914.0,914.0,914.0,914.0,919.0,919.0,919.0,919.0,919.0,934.0,934.0,939.0,939.0,939.0,944.0,944.0,950.0,950.0,1017.0,1011.0,1011.0,1011.0,1011.0,1011.0,1011.0,1017.0,1017.0,1030.0,3712.0,3633.0,3712.0,3712.0,3712.0,3712.0,3795.0,3795.0,3795.0,3795.0,3881.0,3881.0,3881.0,3881.0,3881.0,3971.0,3971.0,3971.0,3971.0,3971.0,3971.0,3971.0,4065.0,3971.0,3971.0,0.0,0.0,0.0,0.0,0.0,0.0,0.0,0.0,0.0,0.0,0.0,0.0,0.0,1401.0,1390.0,1378.0,1367.0,1367.0,1367.0,1357.0,1357.0,1357.0,1346.0,1346.0,1346.0,1346.0,1346.0,1346.0,1335.0,1335.0,1335.0,1335.0,1325.0,1325.0,1325.0,1325.0,1315.0,1315.0,1325.0,1325.0,1325.0,1325.0,1325.0,1346.0,1346.0,1346.0,1346.0,1346.0,1346.0,1346.0,1357.0,1346.0,2084.0,2059.0,2059.0,2034.0,2034.0,2010.0,1987.0,1987.0,1964.0,1964.0,1942.0,1920.0,1899.0,1899.0,1899.0,1878.0,1878.0,1858.0,1858.0,1838.0,1818.0,1818.0,1818.0,1818.0,1799.0,1799.0,1799.0,1799.0,1799.0,1780.0,1762.0,1744.0,1744.0,1726.0,1726.0,1726.0,1709.0,1709.0,1692.0,1676.0,1676.0,1676.0,1659.0,1659.0,1643.0,1643.0,0.0,0.0,0.0,0.0,0.0,0.0,0.0,0.0
2669.0,2669.0,2712.0,2801.0,2801.0,2801.0,2801.0,2801.0,2847.0,2847.0,2847.0,2895.0,2895.0,2895.0,2895.0,2895.0,2895.0,2895.0,2945.0,2997.0,2945.0,2997.0,2945.0,2997.0,2945.0,2997.0,2997.0,2997.0,2997.0,3050.0,3050.0,0.0,0.0,0.0,0.0,0.0,0.0,0.0,0.0,0.0,0.0,0.0,0.0,0.0,0.0,0.0,0.0,0.0,0.0,0.0,863.0,859.0,859.0,859.0,859.0,855.0,855.0,855.0,850.0,850.0,850.0,850.0,850.0,850.0,846.0,846.0,850.0,850.0,850.0,850.0,850.0,855.0,859.0,859.0,855.0,0.0,0.0,0.0,0.0,0.0,0.0,0.0,0.0,0.0,1000.0,1000.0,1005.0,1005.0,1005.0,1005.0,1005.0,1005.0,1005.0,1005.0,1000.0,1000.0,994.0,994.0,982.0,977.0,977.0,971.0,966.0,960.0,955.0,955.0,950.0,944.0,939.0,939.0,934.0,934.0,929.0,929.0,924.0,919.0,914.0,914.0,914.0,914.0,909.0,909.0,909.0,909.0,904.0,904.0,904.0,904.0,900.0,900.0,895.0,895.0,895.0,895.0,895.0,895.0,895.0,895.0,895.0,895.0,895.0,895.0,895.0,895.0,895.0,895.0,895.0,895.0,895.0,890.0,895.0,895.0,890.0,890.0,895.0,895.0,900.0,900.0,900.0,900.0,909.0,909.0,914.0,914.0,914.0,914.0,919.0,919.0,919.0,919.0,919.0,934.0,934.0,939.0,939.0,944.0,944.0,950.0,944.0,1017.0,1017.0,1011.0,1011.0,1011.0,1017.0,1011.0,1017.0,1017.0,1024.0,3712.0,3712.0,3712.0,3712.0,3712.0,3712.0,3795.0,3795.0,3795.0,3795.0,3881.0,3881.0,3971.0,3971.0,3971.0,3971.0,3971.0,4065.0,3971.0,3971.0,3971.0,3971.0,4065.0,3971.0,3971.0,3971.0,0.0,0.0,0.0,0.0,0.0,0.0,0.0,0.0,0.0,0.0,0.0,0.0,1390.0,1390.0,1378.0,1367.0,1367.0,1357.0,1357.0,1357.0,1346.0,1346.0,1346.0,1346.0,1346.0,1335.0,1335.0,1335.0,1325.0,1325.0,1325.0,1325.0,1325.0,1325.0,1315.0,1315.0,1315.0,1325.0,1325.0,1325.0,1325.0,1325.0,1335.0,1346.0,1346.0,1346.0,1346.0,1346.0,1346.0,1346.0,1346.0,2059.0,2059.0,2059.0,2034.0,2034.0,2010.0,1987.0,1987.0,1964.0,1964.0,1942.0,1920.0,1899.0,1899.0,1899.0,1878.0,1878.0,1858.0,1858.0,1838.0,1818.0,1818.0,1818.0,1818.0,1799.0,1799.0,1799.0,1799.0,1799.0,1780.0,1762.0,1744.0,1744.0,1726.0,1726.0,1726.0,1709.0,1709.0,1692.0,1692.0,1676.0,1676.0,1659.0,1659.0,1643.0,1643.0,0.0,0.0,0.0,0.0,0.0,0.0,0.0,0.0
2669.0,2669.0,2712.0,2755.0,2755.0,2801.0,2801.0,2801.0,2847.0,2847.0,2847.0,2847.0,2895.0,2895.0,2895.0,2895.0,2895.0,2895.0,2945.0,2997.0,2997.0,2997.0,2997.0,3050.0,3050.0,3050.0,3050.0,3050.0,3050.0,3050.0,3050.0,3050.0,0.0,0.0,0.0,0.0,0.0,0.0,0.0,0.0,0.0,0.0,0.0,0.0,0.0,0.0,0.0,0.0,0.0,0.0,863.0,863.0,859.0,859.0,859.0,859.0,855.0,855.0,855.0,855.0,855.0,855.0,855.0,855.0,850.0,850.0,855.0,855.0,855.0,855.0,855.0,855.0,859.0,859.0,859.0,0.0,0.0,0.0,0.0,0.0,0.0,0.0,0.0,0.0,1000.0,1000.0,1005.0,1005.0,1005.0,1005.0,1005.0,1005.0,1005.0,1005.0,1000.0,1000.0,994.0,994.0,982.0,977.0,971.0,971.0,966.0,960.0,955.0,950.0,950.0,944.0,939.0,939.0,934.0,934.0,929.0,929.0,924.0,919.0,914.0,914.0,914.0,914.0,909.0,909.0,909.0,909.0,904.0,904.0,904.0,904.0,900.0,900.0,895.0,895.0,895.0,895.0,895.0,895.0,895.0,895.0,895.0,895.0,895.0,895.0,895.0,895.0,895.0,895.0,895.0,895.0,890.0,890.0,890.0,890.0,890.0,890.0,890.0,895.0,895.0,900.0,900.0,900.0,909.0,909.0,909.0,914.0,914.0,914.0,914.0,919.0,914.0,919.0,924.0,929.0,934.0,934.0,939.0,939.0,944.0,944.0,944.0,1011.0,1011.0,1011.0,1011.0,1011.0,1011.0,1011.0,1011.0,1011.0,1011.0,3633.0,3633.0,3712.0,3712.0,3712.0,3795.0,3795.0,3795.0,3795.0,3795.0,3881.0,3971.0,3971.0,3971.0,3971.0,3971.0,4065.0,4065.0,3971.0,3971.0,3971.0,3971.0,4065.0,3971.0,3971.0,3971.0,0.0,0.0,0.0,0.0,0.0,0.0,0.0,0.0,0.0,0.0,0.0,1401.0,1390.0,1390.0,1378.0,1367.0,1357.0,1357.0,1357.0,1346.0,1346.0,1346.0,1346.0,1346.0,1335.0,1335.0,1335.0,1335.0,1325.0,1325.0,1315.0,1315.0,1325.0,1315.0,1315.0,1315.0,1315.0,1315.0,1325.0,1325.0,1325.0,1325.0,1335.0,1335.0,1335.0,1335.0,1346.0,1346.0,1346.0,1346.0,1346.0,2059.0,2059.0,2059.0,2034.0,2034.0,2010.0,1987.0,1987.0,1964.0,1942.0,1920.0,1899.0,1899.0,1878.0,1878.0,1878.0,1878.0,1878.0,1858.0,1838.0,1818.0,1818.0,1818.0,1818.0,1799.0,1799.0,1799.0,1799.0,1799.0,1780.0,1762.0,1744.0,1744.0,1726.0,1726.0,1726.0,1709.0,1709.0,1692.0,1692.0,1676.0,1676.0,1676.0,1659.0,1659.0,1643.0,0.0,0.0,0.0,0.0,0.0,0.0,0.0,0.0
2669.0,2669.0,2669.0,2712.0,2712.0,2755.0,2801.0,2801.0,2847.0,2847.0,2847.0,2847.0,2895.0,2895.0,2895.0,2895.0,2895.0,2895.0,2945.0,2945.0,2945.0,2997.0,2945.0,2945.0,2997.0,3050.0,3050.0,3050.0,3050.0,3050.0,3050.0,3050.0,3050.0,0.0,0.0,0.0,0.0,0.0,0.0,0.0,0.0,0.0,0.0,0.0,0.0,0.0,0.0,0.0,0.0,0.0,863.0,863.0,859.0,859.0,859.0,859.0,859.0,859.0,855.0,855.0,855.0,855.0,855.0,855.0,855.0,855.0,855.0,855.0,855.0,855.0,859.0,859.0,859.0,859.0,0.0,0.0,0.0,0.0,0.0,0.0,0.0,0.0,0.0,0.0,1000.0,1000.0,1000.0,1005.0,1005.0,1000.0,1000.0,1000.0,1000.0,1000.0,1000.0,994.0,994.0,988.0,982.0,977.0,971.0,971.0,966.0,960.0,955.0,950.0,950.0,944.0,939.0,934.0,934.0,934.0,929.0,929.0,919.0,919.0,914.0,914.0,914.0,914.0,914.0,909.0,909.0,909.0,904.0,904.0,904.0,904.0,900.0,900.0,895.0,895.0,895.0,895.0,895.0,895.0,895.0,895.0,895.0,895.0,895.0,895.0,895.0,890.0,890.0,890.0,895.0,890.0,890.0,890.0,890.0,890.0,890.0,890.0,890.0,895.0,895.0,895.0,895.0,895.0,904.0,904.0,904.0,909.0,914.0,914.0,914.0,914.0,914.0,914.0,919.0,919.0,929.0,934.0,939.0,939.0,939.0,944.0,939.0,1005.0,1011.0,1005.0,1011.0,1005.0,1005.0,1005.0,1011.0,1005.0,1005.0,3633.0,3633.0,3712.0,3712.0,3712.0,3795.0,3795.0,3795.0,3795.0,3795.0,3881.0,3881.0,3971.0,3971.0,3971.0,3971.0,4065.0,4065.0,4065.0,4065.0,3971.0,3971.0,4065.0,3971.0,3971.0,3971.0,0.0,0.0,0.0,0.0,0.0,0.0,0.0,0.0,0.0,0.0,0.0,1401.0,1390.0,1390.0,1367.0,1367.0,1357.0,1357.0,1357.0,1346.0,1346.0,1346.0,1346.0,1346.0,1346.0,1346.0,1335.0,1335.0,1325.0,1325.0,1325.0,1325.0,1325.0,1315.0,1315.0,1325.0,1315.0,1315.0,1325.0,1325.0,1325.0,1325.0,1325.0,1335.0,1335.0,1346.0,1346.0,1346.0,1346.0,1346.0,1346.0,2059.0,2059.0,2059.0,2034.0,2034.0,2010.0,1987.0,1987.0,1964.0,1942.0,1920.0,1899.0,1899.0,1878.0,1878.0,1878.0,1878.0,1878.0,1858.0,1838.0,1818.0,1818.0,1818.0,1818.0,1799.0,1799.0,1799.0,1799.0,1799.0,1799.0,1780.0,1744.0,1744.0,1726.0,1726.0,1726.0,1726.0,1709.0,1709.0,1692.0,1692.0,1676.0,1676.0,1659.0,1659.0,1643.0,0.0,0.0,0.0,0.0,0.0,0.0,0.0,0.0
2669.0,2669.0,2669.0,2669.0,2712.0,2712.0,2801.0,2801.0,2801.0,2847.0,2847.0,2847.0,2895.0,2895.0,2895.0,2895.0,2895.0,2895.0,2895.0,2945.0,2945.0,2945.0,2895.0,2945.0,2945.0,2997.0,3050.0,3050.0,3050.0,3050.0,3050.0,3050.0,3050.0,3106.0,0.0,0.0,0.0,0.0,0.0,0.0,0.0,0.0,0.0,0.0,0.0,0.0,0.0,0.0,0.0,0.0,863.0,863.0,863.0,863.0,863.0,859.0,859.0,859.0,859.0,859.0,859.0,855.0,855.0,855.0,855.0,855.0,859.0,859.0,859.0,859.0,859.0,859.0,863.0,0.0,0.0,0.0,0.0,0.0,0.0,0.0,0.0,0.0,0.0,0.0,0.0,1000.0,1000.0,1005.0,1000.0,1000.0,1000.0,1000.0,1000.0,1000.0,994.0,994.0,994.0,988.0,982.0,977.0,971.0,966.0,966.0,955.0,955.0,950.0,944.0,939.0,939.0,934.0,934.0,929.0,929.0,924.0,919.0,919.0,914.0,914.0,914.0,914.0,909.0,909.0,909.0,909.0,904.0,904.0,904.0,904.0,900.0,900.0,895.0,895.0,895.0,895.0,895.0,895.0,895.0,895.0,895.0,895.0,895.0,895.0,890.0,890.0,890.0,890.0,890.0,890.0,890.0,890.0,890.0,890.0,890.0,890.0,890.0,890.0,895.0,895.0,895.0,895.0,904.0,904.0,904.0,914.0,914.0,914.0,914.0,914.0,914.0,919.0,919.0,919.0,929.0,934.0,934.0,939.0,939.0,939.0,939.0,1005.0,1005.0,1000.0,1005.0,1005.0,1005.0,1005.0,1005.0,1000.0,3795.0,3795.0,3712.0,3712.0,3712.0,3712.0,3795.0,3795.0,3795.0,3795.0,3795.0,3881.0,3881.0,3971.0,3971.0,3971.0,4065.0,4065.0,4065.0,4065.0,4065.0,4065.0,4065.0,4065.0,3971.0,4065.0,4065.0,0.0,0.0,0.0,0.0,0.0,0.0,0.0,0.0,0.0,0.0,0.0,1401.0,1390.0,1390.0,1367.0,1367.0,1357.0,1357.0,1357.0,1357.0,1346.0,1346.0,1346.0,1346.0,1346.0,1346.0,1346.0,1335.0,1335.0,1315.0,1325.0,1315.0,1325.0,1325.0,1325.0,1325.0,1315.0,1315.0,1325.0,1325.0,1325.0,1325.0,1315.0,1325.0,1325.0,1325.0,1335.0,1346.0,1335.0,1346.0,0.0,0.0,2059.0,2059.0,2059.0,2034.0,2010.0,1987.0,1964.0,1964.0,1942.0,1920.0,1899.0,1899.0,1878.0,1878.0,1878.0,1878.0,1858.0,1858.0,1838.0,1838.0,1818.0,1818.0,1818.0,1818.0,1799.0,1799.0,1799.0,1799.0,1799.0,1780.0,1780.0,1762.0,1726.0,1726.0,1726.0,1726.0,1709.0,1709.0,1692.0,1692.0,1676.0,1676.0,1676.0,1659.0,1659.0,0.0,0.0,0.0,0.0,0.0,0.0,0.0,0.0
2628.0,2628.0,2628.0,2669.0,2669.0,2669.0,2712.0,2755.0,2755.0,2801.0,2847.0,2847.0,2847.0,2895.0,2895.0,2895.0,2895.0,2895.0,2945.0,2895.0,2945.0,2945.0,2945.0,2945.0,2945.0,2997.0,3050.0,3050.0,3050.0,3050.0,3050.0,3050.0,3106.0,3106.0,0.0,0.0,0.0,0.0,0.0,0.0,0.0,0.0,0.0,0.0,0.0,0.0,0.0,0.0,0.0,0.0,0.0,863.0,863.0,863.0,863.0,863.0,863.0,859.0,859.0,859.0,859.0,859.0,859.0,859.0,859.0,859.0,859.0,859.0,859.0,859.0,859.0,0.0,0.0,0.0,0.0,0.0,0.0,0.0,0.0,0.0,0.0,0.0,0.0,0.0,0.0,1000.0,1000.0,1005.0,1000.0,1000.0,1000.0,1000.0,1000.0,1000.0,994.0,994.0,988.0,988.0,977.0,977.0,971.0,966.0,960.0,955.0,950.0,950.0,944.0,939.0,934.0,934.0,934.0,929.0,929.0,924.0,919.0,914.0,914.0,914.0,914.0,914.0,909.0,909.0,909.0,909.0,909.0,904.0,904.0,904.0,900.0,900.0,895.0,895.0,895.0,895.0,895.0,895.0,895.0,895.0,895.0,895.0,895.0,895.0,895.0,890.0,890.0,890.0,890.0,890.0,886.0,886.0,886.0,886.0,890.0,890.0,890.0,890.0,890.0,895.0,895.0,895.0,904.0,904.0,904.0,909.0,909.0,914.0,914.0,914.0,914.0,914.0,919.0,919.0,924.0,929.0,934.0,934.0,939.0,939.0,939.0,1011.0,1005.0,1005.0,1005.0,1005.0,1005.0,1000.0,1000.0,1000.0,1000.0,3881.0,3795.0,3795.0,3795.0,3795.0,3881.0,3881.0,3881.0,3795.0,3795.0,3881.0,3971.0,3971.0,3971.0,3971.0,4065.0,4065.0,4065.0,4065.0,4065.0,4065.0,4065.0,4065.0,3971.0,4065.0,4065.0,0.0,0.0,0.0,0.0,0.0,0.0,0.0,0.0,0.0,0.0,0.0,0.0,0.0,1378.0,1367.0,1357.0,1357.0,1357.0,1357.0,1357.0,1346.0,1346.0,1346.0,1346.0,1346.0,1346.0,1346.0,1335.0,1325.0,1315.0,1315.0,1315.0,1315.0,1315.0,1315.0,1315.0,1315.0,1315.0,1325.0,1325.0,1325.0,1325.0,1325.0,1325.0,1325.0,1335.0,1335.0,1335.0,1325.0,1346.0,0.0,0.0,0.0,2059.0,2034.0,2010.0,1987.0,1987.0,1964.0,1964.0,1942.0,1920.0,1899.0,1878.0,1878.0,1878.0,1878.0,1878.0,1858.0,1858.0,1838.0,1838.0,1818.0,1818.0,1818.0,1818.0,1818.0,1799.0,1799.0,1799.0,1799.0,1780.0,1762.0,1762.0,1744.0,1726.0,1726.0,1726.0,1709.0,1692.0,1692.0,1692.0,1676.0,1676.0,1676.0,1659.0,1643.0,0.0,0.0,0.0,0.0,0.0,0.0,0.0,0.0
2628.0,2628.0,2669.0,2669.0,2669.0,2669.0,2712.0,2712.0,2755.0,2801.0,2847.0,2847.0,2847.0,2847.0,2847.0,2847.0,2895.0,2895.0,2895.0,2895.0,2945.0,2945.0,2945.0,2945.0,2997.0,2997.0,3050.0,3050.0,3050.0,3050.0,3050.0,3050.0,3050.0,3106.0,0.0,0.0,0.0,0.0,0.0,0.0,0.0,0.0,0.0,0.0,0.0,0.0,0.0,0.0,0.0,0.0,0.0,868.0,863.0,863.0,868.0,863.0,863.0,863.0,863.0,863.0,863.0,863.0,859.0,859.0,859.0,863.0,863.0,863.0,863.0,0.0,0.0,0.0,0.0,0.0,0.0,0.0,0.0,0.0,0.0,0.0,0.0,0.0,0.0,0.0,0.0,0.0,1000.0,1000.0,1000.0,1000.0,1000.0,1000.0,1000.0,1000.0,994.0,994.0,988.0,982.0,977.0,971.0,966.0,966.0,955.0,950.0,950.0,944.0,939.0,934.0,934.0,934.0,929.0,929.0,924.0,919.0,919.0,914.0,914.0,914.0,914.0,914.0,909.0,909.0,909.0,909.0,904.0,904.0,900.0,900.0,900.0,900.0,895.0,895.0,895.0,895.0,895.0,890.0,890.0,895.0,895.0,895.0,895.0,895.0,890.0,890.0,890.0,890.0,890.0,890.0,886.0,886.0,886.0,890.0,890.0,890.0,890.0,890.0,890.0,890.0,895.0,895.0,900.0,904.0,904.0,909.0,909.0,909.0,909.0,909.0,909.0,914.0,914.0,914.0,919.0,924.0,929.0,934.0,939.0,939.0,939.0,939.0,1000.0,1000.0,1005.0,1000.0,1000.0,1000.0,1000.0,994.0,1000.0,3971.0,3971.0,3881.0,3881.0,3881.0,3971.0,3881.0,3881.0,3881.0,3881.0,3881.0,3971.0,3971.0,3971.0,4065.0,4065.0,4065.0,4065.0,4065.0,4065.0,4065.0,4065.0,4065.0,4065.0,4065.0,0.0,0.0,0.0,0.0,0.0,0.0,0.0,0.0,0.0,0.0,0.0,0.0,0.0,0.0,0.0,0.0,1367.0,1357.0,1357.0,1357.0,1357.0,1346.0,1346.0,1346.0,1346.0,1346.0,1335.0,1335.0,1325.0,1325.0,1325.0,1325.0,1315.0,1315.0,1315.0,1315.0,1315.0,1315.0,1315.0,1315.0,1325.0,1325.0,1325.0,1325.0,1325.0,1325.0,1325.0,1325.0,1325.0,1325.0,0.0,0.0,0.0,0.0,0.0,2010.0,2010.0,1987.0,1964.0,1964.0,1942.0,1920.0,1899.0,1899.0,1878.0,1878.0,1878.0,1878.0,1878.0,1858.0,1858.0,1838.0,1838.0,1838.0,1818.0,1818.0,1818.0,1818.0,1799.0,1799.0,1799.0,1799.0,1780.0,1762.0,1744.0,1744.0,1726.0,1726.0,1709.0,1709.0,1692.0,1692.0,1676.0,1676.0,1676.0,1659.0,1659.0,1643.0,0.0,0.0,0.0,0.0,0.0,0.0,0.0,0.0
2628.0,2669.0,2669.0,2669.0,2669.0,2669.0,2669.0,2712.0,2755.0,2801.0,2847.0,2847.0,2847.0,2847.0,2847.0,2847.0,2847.0,2895.0,2895.0,2895.0,2945.0,2945.0,2945.0,2997.0,2997.0,3050.0,3050.0,3050.0,3050.0,3050.0,3050.0,3050.0,3050.0,3050.0,3106.0,0.0,0.0,0.0,0.0,0.0,0.0,0.0,0.0,0.0,0.0,0.0,0.0,0.0,0.0,0.0,0.0,0.0,868.0,863.0,863.0,863.0,868.0,863.0,863.0,863.0,863.0,863.0,863.0,863.0,863.0,868.0,868.0,868.0,0.0,0.0,0.0,0.0,0.0,0.0,0.0,0.0,0.0,0.0,0.0,0.0,0.0,0.0,0.0,0.0,0.0,0.0,1000.0,1000.0,1000.0,994.0,1000.0,1000.0,1000.0,994.0,994.0,988.0,988.0,982.0,977.0,971.0,966.0,966.0,955.0,950.0,950.0,944.0,939.0,934.0,934.0,934.0,929.0,929.0,924.0,919.0,919.0,914.0,914.0,914.0,914.0,909.0,909.0,909.0,909.0,909.0,904.0,904.0,900.0,900.0,900.0,895.0,895.0,895.0,895.0,890.0,890.0,890.0,890.0,890.0,890.0,890.0,890.0,890.0,890.0,890.0,886.0,886.0,886.0,886.0,886.0,886.0,886.0,886.0,886.0,886.0,890.0,890.0,890.0,890.0,890.0,895.0,900.0,900.0,900.0,904.0,904.0,904.0,909.0,909.0,909.0,909.0,914.0,914.0,914.0,919.0,924.0,929.0,934.0,939.0,939.0,939.0,939.0,1000.0,1005.0,1000.0,1000.0,1000.0,994.0,994.0,994.0,3971.0,3971.0,3971.0,3881.0,3971.0,3971.0,3881.0,3881.0,3881.0,3881.0,3971.0,3971.0,3971.0,3971.0,4065.0,4065.0,4065.0,4065.0,4065.0,4065.0,4065.0,4065.0,4065.0,4065.0,4065.0,0.0,0.0,0.0,0.0,0.0,0.0,0.0,0.0,0.0,0.0,0.0,0.0,0.0,0.0,0.0,0.0,0.0,0.0,1357.0,1357.0,1357.0,1346.0,1346.0,1346.0,1346.0,1346.0,1335.0,1335.0,1325.0,1325.0,1325.0,1325.0,1315.0,1315.0,1315.0,1315.0,1325.0,1325.0,1325.0,1325.0,1325.0,1325.0,1325.0,1325.0,1315.0,1325.0,1325.0,1325.0,1315.0,1315.0,1325.0,0.0,0.0,0.0,0.0,1987.0,1987.0,1964.0,1964.0,1942.0,1920.0,1920.0,1899.0,1899.0,1899.0,1878.0,1878.0,1878.0,1878.0,1858.0,1858.0,1858.0,1838.0,1838.0,1818.0,1818.0,1818.0,1818.0,1799.0,1799.0,1799.0,1799.0,1780.0,1780.0,1762.0,1744.0,1726.0,1726.0,1709.0,1709.0,1692.0,1692.0,1676.0,1676.0,1676.0,1676.0,1659.0,1643.0,0.0,0.0,0.0,0.0,0.0,0.0,0.0,0.0
2628.0,2628.0,2628.0,2628.0,2628.0,2628.0,2669.0,2669.0,2712.0,2801.0,2847.0,2847.0,2847.0,2847.0,2847.0,2847.0,2895.0,2895.0,2895.0,2895.0,2895.0,2945.0,2945.0,2945.0,2997.0,2997.0,3050.0,3050.0,3050.0,3050.0,3050.0,3050.0,3050.0,3050.0,3106.0,0.0,0.0,0.0,0.0,0.0,0.0,0.0,0.0,0.0,0.0,0.0,0.0,0.0,0.0,0.0,0.0,3633.0,3558.0,863.0,868.0,868.0,868.0,868.0,868.0,868.0,868.0,868.0,868.0,868.0,868.0,872.0,0.0,0.0,0.0,0.0,0.0,0.0,0.0,0.0,0.0,0.0,0.0,0.0,0.0,0.0,0.0,0.0,0.0,0.0,0.0,994.0,994.0,994.0,994.0,994.0,994.0,994.0,994.0,994.0,988.0,988.0,982.0,977.0,977.0,971.0,966.0,960.0,955.0,950.0,950.0,944.0,939.0,934.0,934.0,934.0,929.0,929.0,924.0,919.0,914.0,914.0,914.0,909.0,909.0,909.0,909.0,909.0,909.0,909.0,904.0,904.0,900.0,900.0,895.0,895.0,895.0,895.0,895.0,890.0,890.0,890.0,890.0,890.0,890.0,890.0,890.0,890.0,890.0,886.0,886.0,881.0,881.0,881.0,881.0,886.0,886.0,886.0,886.0,886.0,890.0,890.0,890.0,890.0,895.0,895.0,900.0,900.0,900.0,904.0,904.0,904.0,904.0,904.0,904.0,909.0,909.0,909.0,914.0,919.0,919.0,929.0,934.0,939.0,939.0,939.0,955.0,1000.0,1000.0,1000.0,1000.0,1000.0,994.0,994.0,994.0,4065.0,3971.0,3971.0,3971.0,3971.0,3971.0,3971.0,3971.0,3881.0,3971.0,3971.0,3971.0,4065.0,4065.0,4065.0,4065.0,4065.0,4065.0,4065.0,4065.0,4065.0,4065.0,4065.0,4065.0,4065.0,0.0,0.0,0.0,0.0,0.0,0.0,0.0,0.0,0.0,0.0,0.0,0.0,0.0,0.0,0.0,0.0,0.0,0.0,1357.0,1357.0,1357.0,1357.0,1346.0,1346.0,1346.0,1346.0,1335.0,1335.0,1325.0,1325.0,1325.0,1325.0,1325.0,1325.0,1325.0,1325.0,1325.0,1325.0,1325.0,1325.0,1325.0,1325.0,1315.0,1315.0,1315.0,1325.0,1315.0,1325.0,1315.0,1315.0,1325.0,0.0,0.0,0.0,0.0,1987.0,1987.0,1964.0,1964.0,1964.0,1920.0,1899.0,1899.0,1899.0,1899.0,1878.0,1878.0,1878.0,1878.0,1858.0,1858.0,1838.0,1838.0,1838.0,1818.0,1818.0,1818.0,1818.0,1818.0,1799.0,1799.0,1799.0,1780.0,1780.0,1762.0,1744.0,1726.0,1726.0,1709.0,1709.0,1692.0,1692.0,1676.0,1676.0,1676.0,1659.0,1659.0,1628.0,0.0,0.0,0.0,0.0,0.0,0.0,0.0,0.0
2628.0,2628.0,2628.0,2628.0,2628.0,2628.0,2628.0,2669.0,2712.0,2755.0,2801.0,2847.0,2847.0,2847.0,2847.0,2847.0,2847.0,2847.0,2895.0,2895.0,2895.0,2895.0,2945.0,2945.0,2997.0,2997.0,3050.0,3050.0,3050.0,3050.0,3050.0,3050.0,3050.0,3050.0,3106.0,3106.0,3106.0,0.0,0.0,0.0,0.0,0.0,0.0,0.0,0.0,0.0,0.0,0.0,0.0,3558.0,3558.0,3558.0,3558.0,3558.0,872.0,872.0,872.0,868.0,872.0,872.0,872.0,872.0,872.0,872.0,0.0,0.0,0.0,0.0,0.0,0.0,0.0,0.0,0.0,0.0,0.0,0.0,0.0,0.0,0.0,0.0,0.0,0.0,0.0,0.0,0.0,0.0,994.0,994.0,994.0,994.0,994.0,994.0,994.0,994.0,988.0,982.0,982.0,977.0,971.0,971.0,966.0,955.0,950.0,950.0,944.0,944.0,939.0,934.0,934.0,934.0,929.0,929.0,924.0,919.0,914.0,914.0,914.0,909.0,909.0,909.0,909.0,909.0,909.0,909.0,904.0,900.0,900.0,895.0,895.0,895.0,895.0,895.0,890.0,890.0,890.0,890.0,890.0,890.0,890.0,890.0,890.0,890.0,890.0,886.0,881.0,881.0,881.0,881.0,881.0,886.0,886.0,886.0,886.0,886.0,886.0,886.0,886.0,890.0,890.0,895.0,900.0,900.0,900.0,900.0,904.0,900.0,904.0,900.0,904.0,909.0,909.0,909.0,914.0,914.0,919.0,919.0,924.0,934.0,939.0,939.0,955.0,994.0,1000.0,1000.0,994.0,994.0,994.0,994.0,1000.0,3971.0,3971.0,3971.0,3971.0,3971.0,3971.0,3971.0,3971.0,3971.0,3971.0,3971.0,3971.0,4065.0,4065.0,4065.0,4065.0,4065.0,4065.0,4065.0,4065.0,4065.0,4065.0,4065.0,4065.0,4065.0,0.0,0.0,0.0,0.0,0.0,0.0,0.0,0.0,0.0,0.0,0.0,0.0,0.0,0.0,0.0,0.0,0.0,0.0,0.0,0.0,1357.0,1357.0,1346.0,1346.0,1346.0,1346.0,1335.0,1335.0,1325.0,1325.0,1335.0,1335.0,1325.0,1325.0,1325.0,1325.0,1325.0,1325.0,1315.0,1325.0,1315.0,1315.0,1315.0,1315.0,1315.0,1315.0,1315.0,1315.0,1315.0,1315.0,1315.0,0.0,0.0,0.0,0.0,0.0,1987.0,1964.0,1964.0,1964.0,1920.0,1899.0,1920.0,1899.0,1899.0,1878.0,1878.0,1878.0,1878.0,1858.0,1858.0,1858.0,1838.0,1838.0,1818.0,1818.0,1818.0,1818.0,1799.0,1799.0,1799.0,1780.0,1780.0,1780.0,1762.0,1744.0,1726.0,1726.0,1726.0,1726.0,1709.0,1692.0,1676.0,1676.0,1676.0,1659.0,1659.0,1643.0,0.0,0.0,0.0,0.0,0.0,0.0,0.0,0.0
2628.0,2628.0,2628.0,2628.0,2628.0,2628.0,2628.0,2669.0,2712.0,2755.0,2801.0,2801.0,2847.0,2847.0,2847.0,2847.0,2847.0,2847.0,2847.0,2895.0,2895.0,2895.0,2895.0,2895.0,2945.0,3050.0,3050.0,3050.0,3050.0,3050.0,3050.0,3106.0,3050.0,3106.0,3106.0,3106.0,3163.0,3163.0,0.0,0.0,0.0,0.0,0.0,0.0,0.0,0.0,0.0,3416.0,3485.0,3558.0,3558.0,3558.0,3558.0,3558.0,3558.0,877.0,872.0,872.0,872.0,877.0,872.0,877.0,877.0,877.0,3795.0,3795.0,0.0,0.0,0.0,0.0,0.0,0.0,0.0,0.0,0.0,0.0,0.0,0.0,0.0,0.0,0.0,0.0,0.0,0.0,0.0,0.0,994.0,994.0,994.0,988.0,988.0,988.0,988.0,988.0,982.0,977.0,977.0,977.0,971.0,966.0,960.0,955.0,950.0,950.0,944.0,944.0,939.0,934.0,934.0,934.0,929.0,924.0,919.0,914.0,914.0,909.0,909.0,909.0,909.0,909.0,909.0,909.0,909.0,904.0,904.0,900.0,895.0,895.0,895.0,895.0,895.0,890.0,890.0,890.0,890.0,890.0,890.0,890.0,890.0,890.0,886.0,890.0,886.0,886.0,881.0,881.0,881.0,881.0,881.0,881.0,881.0,881.0,881.0,886.0,886.0,886.0,886.0,886.0,890.0,890.0,900.0,900.0,895.0,900.0,900.0,900.0,900.0,900.0,904.0,904.0,909.0,909.0,914.0,914.0,919.0,919.0,919.0,929.0,939.0,939.0,944.0,994.0,1000.0,994.0,994.0,994.0,994.0,994.0,0.0,3971.0,3971.0,3971.0,3971.0,3971.0,3971.0,3971.0,3971.0,3971.0,3971.0,3971.0,3971.0,4065.0,4065.0,4065.0,4065.0,4065.0,4065.0,4065.0,4065.0,4065.0,4065.0,4065.0,4065.0,4065.0,0.0,0.0,0.0,0.0,0.0,0.0,0.0,0.0,0.0,0.0,0.0,0.0,0.0,0.0,0.0,0.0,0.0,0.0,0.0,0.0,1357.0,1357.0,1346.0,1346.0,1346.0,1346.0,1346.0,1335.0,1335.0,1335.0,1346.0,1335.0,1335.0,1335.0,1325.0,1325.0,1325.0,1325.0,1325.0,1325.0,1315.0,1315.0,1315.0,1315.0,1315.0,1315.0,1315.0,1315.0,1315.0,1315.0,1325.0,0.0,0.0,0.0,0.0,0.0,1987.0,1964.0,1964.0,1942.0,1942.0,1920.0,1920.0,1899.0,1899.0,1878.0,1878.0,1878.0,1858.0,1858.0,1838.0,1838.0,1838.0,1838.0,1818.0,1818.0,1818.0,1818.0,1799.0,1799.0,1780.0,1780.0,1780.0,1762.0,1744.0,1744.0,1726.0,1726.0,1726.0,1726.0,1709.0,1692.0,1676.0,1676.0,1676.0,1676.0,1659.0,1643.0,0.0,0.0,0.0,0.0,0.0,0.0,0.0,0.0
2628.0,2589.0,2628.0,2628.0,2628.0,2628.0,2628.0,2669.0,2669.0,2712.0,2755.0,2801.0,2801.0,2847.0,2847.0,2847.0,2847.0,2847.0,2847.0,2895.0,2895.0,2895.0,2895.0,2895.0,2945.0,3050.0,3050.0,3050.0,3050.0,3050.0,3050.0,3050.0,3050.0,3106.0,3106.0,3106.0,3163.0,3163.0,3285.0,3285.0,3285.0,3285.0,3285.0,3349.0,3349.0,3416.0,3416.0,3416.0,3485.0,3485.0,3558.0,3558.0,3558.0,3558.0,3558.0,877.0,877.0,872.0,877.0,877.0,877.0,877.0,3795.0,3795.0,3795.0,3795.0,3795.0,3795.0,0.0,0.0,0.0,0.0,0.0,0.0,0.0,0.0,0.0,0.0,0.0,0.0,0.0,0.0,0.0,0.0,0.0,0.0,994.0,994.0,994.0,988.0,988.0,988.0,988.0,988.0,982.0,977.0,977.0,977.0,971.0,966.0,960.0,955.0,950.0,944.0,944.0,939.0,939.0,934.0,934.0,934.0,929.0,924.0,919.0,914.0,909.0,909.0,909.0,909.0,909.0,909.0,909.0,909.0,904.0,904.0,900.0,900.0,895.0,895.0,895.0,895.0,890.0,890.0,890.0,890.0,890.0,890.0,890.0,890.0,890.0,890.0,886.0,886.0,886.0,881.0,881.0,881.0,881.0,881.0,881.0,881.0,881.0,881.0,881.0,881.0,886.0,886.0,886.0,886.0,890.0,890.0,895.0,900.0,895.0,895.0,895.0,900.0,900.0,900.0,900.0,904.0,909.0,909.0,914.0,914.0,914.0,914.0,919.0,919.0,939.0,939.0,944.0,994.0,1000.0,994.0,994.0,994.0,1000.0,994.0,0.0,3971.0,3971.0,3971.0,3971.0,3971.0,3971.0,3971.0,3971.0,3971.0,3971.0,3971.0,3971.0,4065.0,4065.0,4065.0,4065.0,4065.0,4065.0,4065.0,4065.0,4065.0,4065.0,4065.0,4065.0,4065.0,0.0,0.0,0.0,0.0,0.0,0.0,0.0,0.0,0.0,0.0,0.0,0.0,0.0,0.0,0.0,0.0,0.0,0.0,0.0,0.0,1357.0,1357.0,1346.0,1346.0,1346.0,1346.0,1346.0,1335.0,1335.0,1335.0,1335.0,1346.0,1335.0,1335.0,1335.0,1335.0,1335.0,1335.0,1325.0,1325.0,1315.0,1315.0,1315.0,1315.0,1315.0,1315.0,1315.0,1315.0,1315.0,1325.0,1325.0,1325.0,0.0,0.0,0.0,1964.0,1964.0,1964.0,1964.0,1964.0,1942.0,1920.0,1899.0,1899.0,1899.0,1878.0,1878.0,1878.0,1858.0,1838.0,1838.0,1838.0,1838.0,1838.0,1818.0,1818.0,1818.0,1818.0,1799.0,1799.0,1780.0,1762.0,1762.0,1744.0,1744.0,1744.0,1726.0,1726.0,1726.0,1709.0,1709.0,1692.0,1692.0,1676.0,1676.0,1659.0,1659.0,1643.0,0.0,0.0,0.0,0.0,0.0,0.0,0.0,0.0
2589.0,2589.0,2589.0,2589.0,2628.0,2628.0,2589.0,2628.0,2669.0,2712.0,2712.0,2755.0,2801.0,2847.0,2847.0,2847.0,2847.0,2847.0,2847.0,2895.0,2895.0,2895.0,2895.0,2895.0,2997.0,3050.0,3050.0,3050.0,3050.0,3050.0,3050.0,3050.0,3050.0,3106.0,3106.0,3106.0,3163.0,3163.0,3285.0,3285.0,3285.0,3285.0,3285.0,3349.0,3285.0,3416.0,3416.0,3416.0,3485.0,3485.0,3558.0,3558.0,3558.0,3558.0,3558.0,3558.0,3633.0,3633.0,3633.0,3712.0,3712.0,3712.0,3795.0,3712.0,3712.0,3795.0,3795.0,3795.0,3795.0,0.0,0.0,0.0,0.0,0.0,0.0,0.0,0.0,0.0,0.0,0.0,0.0,0.0,0.0,0.0,0.0,994.0,994.0,994.0,988.0,988.0,988.0,988.0,988.0,988.0,982.0,977.0,977.0,977.0,971.0,966.0,960.0,955.0,950.0,944.0,944.0,939.0,934.0,934.0,934.0,929.0,929.0,924.0,914.0,914.0,909.0,909.0,909.0,909.0,909.0,909.0,904.0,904.0,904.0,900.0,900.0,895.0,895.0,895.0,895.0,895.0,890.0,890.0,890.0,890.0,890.0,890.0,890.0,890.0,890.0,886.0,881.0,886.0,886.0,881.0,881.0,881.0,877.0,877.0,881.0,881.0,881.0,881.0,881.0,881.0,881.0,881.0,881.0,881.0,886.0,890.0,895.0,895.0,895.0,895.0,895.0,900.0,900.0,900.0,900.0,900.0,904.0,909.0,909.0,909.0,914.0,914.0,919.0,919.0,929.0,934.0,934.0,939.0,0.0,0.0,994.0,994.0,1000.0,1000.0,0.0,0.0,0.0,3971.0,3971.0,3971.0,3971.0,4065.0,3971.0,3971.0,4065.0,4065.0,4065.0,4065.0,4065.0,4065.0,4065.0,4065.0,4065.0,4065.0,4065.0,4065.0,4065.0,4065.0,4065.0,4065.0,0.0,0.0,0.0,0.0,0.0,0.0,0.0,0.0,0.0,0.0,0.0,0.0,0.0,0.0,0.0,0.0,0.0,0.0,0.0,0.0,0.0,1357.0,1346.0,1346.0,1346.0,1346.0,1335.0,1335.0,1335.0,1335.0,1335.0,1335.0,1335.0,1335.0,1335.0,1335.0,1335.0,1325.0,1325.0,1325.0,1325.0,1325.0,1315.0,1315.0,1315.0,1315.0,1315.0,1325.0,1325.0,1325.0,1335.0,1335.0,1346.0,0.0,1964.0,1964.0,1964.0,1964.0,1942.0,1942.0,1920.0,1920.0,1899.0,1899.0,1899.0,1878.0,1878.0,1878.0,1858.0,1838.0,1838.0,1838.0,1818.0,1818.0,1818.0,1818.0,1818.0,1799.0,1799.0,1780.0,1780.0,1762.0,1762.0,1762.0,1744.0,1744.0,1744.0,1726.0,1726.0,1726.0,1726.0,1692.0,1692.0,1676.0,1676.0,1659.0,1659.0,1643.0,0.0,0.0,0.0,0.0,0.0,0.0,0.0,0.0
2628.0,2589.0,2589.0,2589.0,2589.0,2589.0,2589.0,2628.0,2669.0,2712.0,2712.0,2755.0,2755.0,2801.0,2801.0,2847.0,2847.0,2847.0,2847.0,2895.0,2895.0,2895.0,2895.0,2945.0,2945.0,2997.0,2997.0,3050.0,2997.0,3050.0,3050.0,3050.0,3050.0,3106.0,3106.0,3106.0,3163.0,3163.0,3223.0,3223.0,3285.0,3285.0,3285.0,3285.0,3285.0,3416.0,3416.0,3416.0,3485.0,3485.0,3558.0,3558.0,3558.0,3558.0,3558.0,3558.0,3633.0,3633.0,3633.0,3712.0,3712.0,3712.0,3712.0,3712.0,3712.0,3712.0,3712.0,3712.0,3712.0,0.0,0.0,0.0,0.0,0.0,0.0,0.0,0.0,0.0,0.0,0.0,0.0,0.0,0.0,0.0,0.0,0.0,994.0,988.0,988.0,982.0,982.0,982.0,982.0,982.0,977.0,977.0,977.0,971.0,971.0,966.0,960.0,950.0,950.0,944.0,939.0,939.0,934.0,934.0,934.0,929.0,929.0,924.0,914.0,914.0,909.0,909.0,909.0,904.0,904.0,909.0,904.0,904.0,904.0,900.0,895.0,895.0,895.0,895.0,890.0,890.0,890.0,890.0,890.0,890.0,890.0,890.0,890.0,890.0,886.0,886.0,881.0,881.0,881.0,881.0,877.0,877.0,877.0,877.0,877.0,881.0,877.0,877.0,877.0,877.0,877.0,881.0,881.0,881.0,886.0,890.0,895.0,895.0,895.0,895.0,895.0,895.0,895.0,900.0,900.0,900.0,900.0,904.0,904.0,909.0,909.0,914.0,914.0,919.0,924.0,934.0,934.0,0.0,0.0,0.0,1000.0,1000.0,1005.0,994.0,994.0,0.0,3971.0,3971.0,3971.0,3971.0,3971.0,3971.0,3971.0,3971.0,3971.0,4065.0,3971.0,4065.0,4065.0,4065.0,4065.0,4065.0,4065.0,4065.0,4065.0,4065.0,4065.0,4065.0,4065.0,4065.0,0.0,0.0,0.0,0.0,0.0,0.0,0.0,0.0,0.0,0.0,0.0,0.0,0.0,0.0,0.0,0.0,0.0,0.0,0.0,0.0,0.0,1357.0,1346.0,1346.0,1346.0,1346.0,1346.0,1346.0,1335.0,1335.0,1335.0,1335.0,1325.0,1346.0,1335.0,1335.0,1335.0,1325.0,1325.0,1325.0,1325.0,1325.0,1315.0,1315.0,1315.0,1315.0,1315.0,1325.0,1325.0,1325.0,1325.0,1335.0,1346.0,0.0,1964.0,1964.0,1964.0,1942.0,1942.0,1942.0,1920.0,1920.0,1899.0,1899.0,1899.0,1878.0,1878.0,1878.0,1858.0,1858.0,1838.0,1838.0,1838.0,1818.0,1818.0,1818.0,1818.0,1799.0,1799.0,1799.0,1780.0,1762.0,1762.0,1762.0,1744.0,1744.0,1744.0,1744.0,1726.0,1726.0,1726.0,1709.0,1692.0,1676.0,1676.0,1659.0,1659.0,1659.0,0.0,0.0,0.0,0.0,0.0,0.0,0.0,0.0
2589.0,2589.0,2589.0,2589.0,2628.0,2628.0,2628.0,2628.0,2669.0,2712.0,2712.0,2755.0,2755.0,2801.0,2801.0,2847.0,2847.0,2847.0,2847.0,2895.0,2895.0,2895.0,2895.0,2895.0,2945.0,2997.0,2997.0,2997.0,2997.0,3050.0,3050.0,3050.0,3050.0,3106.0,3106.0,3106.0,3163.0,3163.0,3223.0,3223.0,3285.0,3285.0,3285.0,3349.0,3349.0,3349.0,3416.0,3416.0,3416.0,3485.0,3485.0,3558.0,3558.0,3558.0,3558.0,3558.0,3633.0,3633.0,3633.0,3712.0,3712.0,3712.0,3712.0,3712.0,3712.0,3795.0,3712.0,3795.0,3712.0,0.0,0.0,0.0,0.0,0.0,0.0,0.0,0.0,0.0,0.0,0.0,0.0,0.0,0.0,0.0,0.0,0.0,994.0,988.0,988.0,982.0,982.0,982.0,982.0,982.0,977.0,977.0,977.0,971.0,971.0,966.0,960.0,950.0,950.0,944.0,939.0,939.0,934.0,934.0,934.0,929.0,924.0,919.0,914.0,914.0,909.0,909.0,904.0,904.0,904.0,904.0,904.0,900.0,900.0,895.0,895.0,895.0,895.0,895.0,890.0,890.0,890.0,890.0,890.0,890.0,890.0,886.0,886.0,886.0,886.0,881.0,881.0,877.0,881.0,877.0,877.0,877.0,877.0,877.0,877.0,877.0,877.0,877.0,877.0,877.0,877.0,881.0,881.0,881.0,886.0,890.0,895.0,895.0,895.0,895.0,895.0,895.0,895.0,900.0,900.0,900.0,900.0,904.0,904.0,909.0,909.0,914.0,914.0,919.0,919.0,929.0,929.0,0.0,0.0,0.0,0.0,994.0,1000.0,994.0,0.0,0.0,3881.0,3881.0,3971.0,3971.0,3971.0,3971.0,3971.0,4065.0,4065.0,4065.0,4065.0,4065.0,4065.0,4065.0,4164.0,4065.0,4065.0,4065.0,4065.0,4065.0,0.0,0.0,0.0,0.0,0.0,0.0,0.0,0.0,0.0,0.0,0.0,0.0,0.0,0.0,0.0,0.0,0.0,0.0,0.0,0.0,0.0,0.0,0.0,0.0,0.0,0.0,1346.0,1346.0,1346.0,1346.0,1346.0,1346.0,1335.0,1346.0,1346.0,1346.0,1346.0,1335.0,1335.0,1335.0,1335.0,1325.0,1325.0,1325.0,1325.0,1325.0,1315.0,1315.0,1315.0,1315.0,1315.0,1325.0,1325.0,1325.0,1325.0,1325.0,1346.0,1964.0,1964.0,1964.0,1964.0,1942.0,1942.0,1942.0,1920.0,1920.0,1899.0,1899.0,1899.0,1878.0,1878.0,1878.0,1858.0,1838.0,1838.0,1838.0,1818.0,1818.0,1818.0,1818.0,1818.0,1818.0,1799.0,1799.0,1780.0,1780.0,1762.0,1762.0,1762.0,1744.0,1744.0,1744.0,1726.0,1726.0,1726.0,1726.0,1709.0,1676.0,1676.0,1659.0,1659.0,1659.0,0.0,0.0,0.0,0.0,0.0,0.0,0.0,0.0
2589.0,2589.0,2589.0,2589.0,2589.0,2589.0,2628.0,2628.0,2669.0,2712.0,2712.0,2712.0,2712.0,2755.0,2801.0,2801.0,2847.0,2847.0,2847.0,2895.0,2895.0,2895.0,2895.0,2895.0,2945.0,2945.0,2945.0,2997.0,2997.0,3050.0,3050.0,3050.0,3106.0,3106.0,3106.0,3163.0,3163.0,3163.0,3223.0,3223.0,3285.0,3285.0,3285.0,3349.0,3285.0,3349.0,3349.0,3349.0,3416.0,3485.0,3485.0,3558.0,3558.0,3558.0,3558.0,3558.0,3633.0,3633.0,3633.0,3633.0,3712.0,3712.0,3712.0,3712.0,3712.0,3712.0,3795.0,3795.0,3795.0,3795.0,0.0,0.0,0.0,0.0,0.0,0.0,0.0,0.0,0.0,0.0,0.0,0.0,0.0,0.0,0.0,0.0,994.0,988.0,988.0,988.0,982.0,982.0,982.0,977.0,977.0,977.0,971.0,971.0,966.0,960.0,955.0,950.0,944.0,944.0,944.0,939.0,934.0,934.0,929.0,929.0,919.0,914.0,914.0,909.0,909.0,909.0,904.0,904.0,904.0,900.0,900.0,900.0,895.0,895.0,895.0,895.0,895.0,895.0,890.0,890.0,890.0,890.0,890.0,890.0,886.0,886.0,886.0,881.0,881.0,881.0,881.0,881.0,881.0,877.0,877.0,877.0,877.0,877.0,877.0,877.0,877.0,877.0,877.0,877.0,877.0,877.0,881.0,881.0,886.0,881.0,890.0,895.0,895.0,895.0,895.0,895.0,895.0,900.0,900.0,900.0,900.0,904.0,904.0,909.0,909.0,914.0,914.0,914.0,919.0,929.0,929.0,0.0,0.0,0.0,0.0,1000.0,1000.0,994.0,994.0,0.0,0.0,3971.0,3971.0,3971.0,3971.0,3971.0,3971.0,4065.0,4065.0,4065.0,4065.0,4065.0,4164.0,4164.0,4164.0,4164.0,4065.0,4065.0,4065.0,0.0,0.0,0.0,0.0,0.0,0.0,0.0,0.0,0.0,0.0,0.0,0.0,0.0,0.0,0.0,0.0,0.0,0.0,0.0,1276.0,1266.0,1257.0,1257.0,1266.0,1266.0,0.0,0.0,1346.0,1346.0,1346.0,1346.0,1346.0,1346.0,1346.0,1346.0,1346.0,1335.0,1335.0,1335.0,1335.0,1335.0,1335.0,1325.0,1325.0,1325.0,1325.0,1315.0,1315.0,1315.0,1315.0,1315.0,1315.0,1325.0,1325.0,1325.0,1335.0,1964.0,1964.0,1964.0,1964.0,1964.0,1964.0,1942.0,1942.0,1920.0,1920.0,1899.0,1899.0,1899.0,1899.0,1878.0,1878.0,1878.0,1858.0,1838.0,1838.0,1818.0,1818.0,1818.0,1818.0,1818.0,1818.0,1818.0,1799.0,1799.0,1780.0,1762.0,1762.0,1744.0,1744.0,1744.0,1744.0,1744.0,1726.0,1726.0,1709.0,1726.0,1692.0,1676.0,1676.0,1676.0,1659.0,1643.0,0.0,0.0,0.0,0.0,0.0,0.0,0.0,0.0
2589.0,2589.0,2589.0,2589.0,2589.0,2589.0,2628.0,2628.0,2669.0,2712.0,2712.0,2712.0,2712.0,2755.0,2755.0,2801.0,2801.0,2847.0,2847.0,2847.0,2895.0,2895.0,2895.0,2895.0,2945.0,2945.0,2945.0,2997.0,3050.0,3050.0,3050.0,3050.0,3106.0,3106.0,3106.0,3163.0,3163.0,3163.0,3223.0,3223.0,3285.0,3285.0,3285.0,3349.0,3285.0,3349.0,3349.0,3349.0,3416.0,3485.0,3485.0,3558.0,3558.0,3558.0,3558.0,3558.0,3633.0,3633.0,3633.0,3633.0,3633.0,3712.0,3712.0,3712.0,3712.0,3712.0,3795.0,3795.0,3712.0,0.0,0.0,0.0,0.0,0.0,0.0,0.0,0.0,0.0,0.0,0.0,0.0,0.0,0.0,0.0,0.0,1000.0,988.0,988.0,988.0,982.0,982.0,977.0,977.0,977.0,977.0,977.0,971.0,971.0,966.0,955.0,950.0,950.0,944.0,944.0,944.0,939.0,934.0,934.0,929.0,924.0,914.0,914.0,909.0,909.0,909.0,909.0,904.0,904.0,904.0,900.0,895.0,895.0,895.0,895.0,890.0,890.0,890.0,890.0,890.0,890.0,890.0,886.0,886.0,890.0,886.0,886.0,881.0,881.0,881.0,881.0,877.0,877.0,877.0,877.0,877.0,877.0,877.0,877.0,877.0,877.0,877.0,877.0,877.0,877.0,872.0,877.0,877.0,881.0,881.0,881.0,890.0,890.0,890.0,895.0,895.0,895.0,895.0,895.0,895.0,900.0,900.0,900.0,904.0,904.0,909.0,909.0,914.0,914.0,919.0,0.0,0.0,0.0,0.0,0.0,0.0,1000.0,1000.0,1000.0,0.0,0.0,0.0,0.0,0.0,3881.0,3881.0,3971.0,3971.0,4065.0,4065.0,4065.0,4065.0,4065.0,4164.0,4164.0,0.0,0.0,0.0,0.0,0.0,0.0,0.0,0.0,0.0,0.0,0.0,0.0,0.0,0.0,1315.0,1315.0,1315.0,1305.0,1305.0,1305.0,1305.0,0.0,1276.0,1276.0,1266.0,1266.0,1257.0,1257.0,1266.0,1266.0,1266.0,1266.0,1266.0,1346.0,1346.0,1346.0,1346.0,1346.0,1346.0,1346.0,1335.0,1335.0,1335.0,1335.0,1335.0,1335.0,1325.0,1325.0,1325.0,1315.0,1315.0,1315.0,1315.0,1315.0,1315.0,1315.0,1315.0,1315.0,1325.0,1325.0,1325.0,1964.0,1964.0,1987.0,1964.0,1964.0,1964.0,1942.0,1942.0,1920.0,1920.0,1899.0,1899.0,1899.0,1899.0,1878.0,1878.0,1858.0,1858.0,1838.0,1838.0,1838.0,1818.0,1818.0,1818.0,1818.0,1818.0,1818.0,1799.0,1799.0,1780.0,1762.0,1762.0,1762.0,1762.0,1744.0,1744.0,1744.0,1744.0,1726.0,1744.0,1709.0,1709.0,1692.0,1676.0,1676.0,1659.0,1643.0,0.0,0.0,0.0,0.0,0.0,0.0,0.0,0.0
2589.0,2589.0,2589.0,2589.0,2589.0,2589.0,2628.0,2628.0,2669.0,2712.0,2712.0,2712.0,2712.0,2755.0,2755.0,2801.0,2801.0,2847.0,2847.0,2847.0,2847.0,2895.0,2895.0,2895.0,2945.0,2945.0,2945.0,2997.0,2997.0,3050.0,3050.0,3050.0,3050.0,3106.0,3106.0,3106.0,3106.0,3163.0,3163.0,3223.0,3223.0,3285.0,3285.0,3285.0,3285.0,3349.0,3349.0,3416.0,3416.0,3485.0,3485.0,3558.0,3558.0,3558.0,3558.0,3558.0,3633.0,3633.0,3633.0,3633.0,3633.0,3712.0,3712.0,3712.0,3712.0,3712.0,3795.0,3795.0,3795.0,0.0,0.0,0.0,0.0,0.0,0.0,0.0,0.0,0.0,0.0,0.0,0.0,0.0,0.0,0.0,0.0,994.0,988.0,988.0,982.0,982.0,977.0,977.0,977.0,977.0,977.0,977.0,971.0,971.0,955.0,955.0,950.0,950.0,944.0,939.0,939.0,934.0,934.0,934.0,929.0,924.0,914.0,909.0,909.0,909.0,909.0,909.0,909.0,904.0,904.0,895.0,895.0,895.0,895.0,895.0,890.0,890.0,890.0,890.0,890.0,890.0,890.0,886.0,886.0,890.0,890.0,881.0,881.0,881.0,881.0,881.0,877.0,877.0,877.0,877.0,877.0,877.0,877.0,877.0,877.0,877.0,877.0,877.0,872.0,872.0,872.0,877.0,877.0,872.0,877.0,877.0,890.0,890.0,890.0,895.0,895.0,895.0,895.0,895.0,895.0,895.0,895.0,900.0,904.0,904.0,909.0,909.0,909.0,914.0,919.0,0.0,0.0,0.0,0.0,0.0,0.0,994.0,1000.0,1000.0,994.0,3416.0,3633.0,3633.0,3712.0,3881.0,3881.0,3971.0,3881.0,3971.0,4065.0,4065.0,4065.0,0.0,0.0,0.0,0.0,0.0,0.0,0.0,0.0,0.0,0.0,0.0,0.0,0.0,0.0,0.0,0.0,1315.0,1315.0,1315.0,1305.0,1305.0,1305.0,1295.0,1295.0,1285.0,1276.0,1276.0,1266.0,1266.0,1257.0,1257.0,1257.0,1257.0,1248.0,1257.0,1248.0,1346.0,1346.0,1346.0,1346.0,1346.0,1346.0,1346.0,1346.0,1335.0,1335.0,1335.0,1335.0,1325.0,1325.0,1325.0,1325.0,1325.0,1315.0,1315.0,1315.0,1315.0,1315.0,1315.0,1315.0,1315.0,1325.0,1325.0,1325.0,1964.0,1964.0,1987.0,1964.0,1964.0,1964.0,1942.0,1942.0,1920.0,1899.0,1899.0,1899.0,1899.0,1878.0,1878.0,1878.0,1858.0,1858.0,1838.0,1838.0,1838.0,1818.0,1818.0,1818.0,1818.0,1818.0,1818.0,1799.0,1799.0,1780.0,1780.0,1762.0,1762.0,1762.0,1762.0,1762.0,1762.0,1744.0,1744.0,1726.0,1726.0,1709.0,1692.0,1676.0,1676.0,1659.0,1659.0,0.0,0.0,0.0,0.0,0.0,0.0,0.0,0.0
2589.0,2589.0,2589.0,2589.0,2589.0,2589.0,2589.0,2628.0,2669.0,2669.0,2669.0,2712.0,2712.0,2712.0,2755.0,2801.0,2801.0,2801.0,2847.0,2847.0,2847.0,2847.0,2895.0,2895.0,2895.0,2895.0,2895.0,2945.0,2997.0,2997.0,3050.0,3050.0,3050.0,3106.0,3106.0,3106.0,3106.0,3163.0,3163.0,3223.0,3223.0,3285.0,3285.0,3285.0,3285.0,3349.0,3349.0,3349.0,3416.0,3416.0,3485.0,3485.0,3558.0,3558.0,3558.0,3558.0,3558.0,3633.0,3633.0,3633.0,3633.0,3712.0,3712.0,3712.0,3712.0,3795.0,3795.0,3795.0,3795.0,3795.0,0.0,0.0,0.0,0.0,0.0,0.0,0.0,0.0,0.0,0.0,0.0,0.0,0.0,0.0,0.0,0.0,982.0,982.0,982.0,977.0,977.0,977.0,977.0,977.0,977.0,971.0,971.0,971.0,955.0,955.0,950.0,950.0,944.0,939.0,939.0,934.0,934.0,929.0,924.0,919.0,914.0,909.0,909.0,909.0,909.0,909.0,909.0,904.0,904.0,900.0,895.0,895.0,895.0,890.0,890.0,890.0,886.0,890.0,890.0,890.0,890.0,886.0,886.0,890.0,890.0,881.0,881.0,881.0,877.0,881.0,877.0,877.0,877.0,877.0,877.0,877.0,877.0,877.0,877.0,877.0,877.0,877.0,872.0,872.0,872.0,877.0,877.0,877.0,877.0,877.0,886.0,890.0,890.0,890.0,895.0,895.0,895.0,895.0,895.0,895.0,895.0,900.0,900.0,904.0,904.0,904.0,909.0,909.0,914.0,919.0,0.0,0.0,0.0,0.0,0.0,0.0,1000.0,1000.0,3416.0,3416.0,3633.0,3558.0,3712.0,3795.0,3795.0,3881.0,3971.0,4065.0,4065.0,4065.0,0.0,0.0,0.0,0.0,0.0,0.0,0.0,0.0,0.0,0.0,0.0,0.0,0.0,0.0,0.0,1325.0,1315.0,1315.0,1305.0,1305.0,1305.0,1295.0,1295.0,1285.0,1285.0,1276.0,1276.0,1276.0,1266.0,1266.0,1257.0,1248.0,1248.0,1248.0,1248.0,1248.0,1239.0,1230.0,1346.0,1346.0,1346.0,1346.0,1346.0,1346.0,1335.0,1335.0,1325.0,1325.0,1325.0,1325.0,1325.0,1325.0,1315.0,1315.0,1315.0,1315.0,1315.0,1315.0,1315.0,1315.0,1315.0,1325.0,1325.0,1325.0,1325.0,1987.0,1987.0,1987.0,1964.0,1964.0,1964.0,1942.0,1942.0,1920.0,1899.0,1899.0,1899.0,1899.0,1878.0,1878.0,1858.0,1858.0,1838.0,1838.0,1838.0,1838.0,1818.0,1818.0,1818.0,1818.0,1818.0,1818.0,1799.0,1799.0,1799.0,1780.0,1780.0,1762.0,1762.0,1762.0,1762.0,1762.0,1744.0,1744.0,1726.0,1726.0,1709.0,1692.0,1676.0,1676.0,1659.0,1659.0,0.0,0.0,0.0,0.0,0.0,0.0,0.0,0.0
2589.0,2589.0,2589.0,2589.0,2589.0,2550.0,2589.0,2589.0,2628.0,2669.0,2669.0,2712.0,2712.0,2712.0,2755.0,2801.0,2801.0,2801.0,2847.0,2847.0,2847.0,2847.0,2895.0,2895.0,2895.0,2895.0,2895.0,2945.0,2945.0,2997.0,3050.0,3050.0,3106.0,3106.0,3106.0,3106.0,3106.0,3163.0,3163.0,3163.0,3223.0,3223.0,3285.0,3285.0,3285.0,3285.0,3349.0,3349.0,3349.0,3416.0,3416.0,3485.0,3558.0,3558.0,3558.0,3558.0,3558.0,3633.0,3633.0,3633.0,3633.0,3712.0,3712.0,3712.0,3712.0,3712.0,3795.0,3795.0,3795.0,3795.0,0.0,0.0,0.0,0.0,0.0,0.0,0.0,0.0,0.0,0.0,0.0,0.0,0.0,0.0,0.0,0.0,982.0,977.0,977.0,977.0,977.0,977.0,971.0,971.0,971.0,971.0,966.0,960.0,960.0,950.0,950.0,950.0,944.0,939.0,939.0,934.0,934.0,929.0,924.0,919.0,914.0,909.0,909.0,904.0,904.0,909.0,904.0,904.0,904.0,900.0,895.0,895.0,895.0,890.0,890.0,890.0,886.0,886.0,890.0,890.0,886.0,886.0,886.0,890.0,890.0,881.0,881.0,881.0,877.0,877.0,877.0,877.0,877.0,877.0,877.0,877.0,877.0,877.0,877.0,872.0,872.0,872.0,872.0,872.0,872.0,877.0,877.0,877.0,877.0,877.0,881.0,886.0,886.0,886.0,890.0,890.0,890.0,895.0,895.0,895.0,895.0,900.0,900.0,900.0,904.0,904.0,904.0,909.0,909.0,914.0,0.0,0.0,0.0,0.0,0.0,0.0,1000.0,1000.0,3416.0,0.0,3712.0,3712.0,3712.0,3795.0,3881.0,3971.0,3971.0,4065.0,4065.0,0.0,0.0,0.0,0.0,0.0,0.0,0.0,0.0,0.0,0.0,0.0,0.0,0.0,0.0,1315.0,1315.0,1315.0,1315.0,1305.0,1305.0,1295.0,1295.0,1295.0,1285.0,1276.0,1276.0,1276.0,1266.0,1266.0,1266.0,1266.0,1257.0,1248.0,1248.0,1239.0,1239.0,1239.0,1230.0,1221.0,1346.0,1346.0,1346.0,1346.0,1346.0,1346.0,1335.0,1325.0,1325.0,1325.0,1325.0,1315.0,1315.0,1315.0,1315.0,1315.0,1315.0,1315.0,1315.0,1315.0,1315.0,1315.0,1315.0,1325.0,1325.0,1325.0,1325.0,1987.0,1987.0,1987.0,1987.0,1964.0,1964.0,1942.0,1920.0,1899.0,1899.0,1899.0,1899.0,1878.0,1878.0,1878.0,1858.0,1858.0,1858.0,1838.0,1838.0,1838.0,1838.0,1818.0,1818.0,1818.0,1818.0,1818.0,1818.0,1799.0,1799.0,1799.0,1799.0,1780.0,1780.0,1780.0,1780.0,1762.0,1744.0,1744.0,1726.0,1709.0,1726.0,1692.0,1676.0,1676.0,1659.0,1659.0,0.0,0.0,0.0,0.0,0.0,0.0,0.0,0.0
2628.0,2589.0,2589.0,2589.0,2589.0,2550.0,2589.0,2589.0,2628.0,2628.0,2669.0,2712.0,2712.0,2712.0,2712.0,2755.0,2755.0,2847.0,2801.0,2847.0,2847.0,2847.0,2847.0,2895.0,2895.0,2895.0,2945.0,2945.0,2945.0,2997.0,3050.0,3050.0,3106.0,3106.0,3106.0,3106.0,3163.0,3163.0,3163.0,3163.0,3223.0,3223.0,3285.0,3285.0,3285.0,3349.0,3349.0,3349.0,3349.0,3349.0,3416.0,3485.0,3485.0,3485.0,3558.0,3558.0,3558.0,3633.0,3633.0,3633.0,3633.0,3712.0,3712.0,3712.0,3712.0,3712.0,3795.0,3712.0,3712.0,3712.0,0.0,0.0,0.0,0.0,0.0,0.0,0.0,0.0,0.0,0.0,0.0,0.0,0.0,0.0,0.0,0.0,977.0,977.0,977.0,977.0,977.0,971.0,971.0,971.0,971.0,966.0,960.0,960.0,955.0,950.0,950.0,950.0,944.0,939.0,939.0,934.0,934.0,929.0,924.0,919.0,914.0,909.0,909.0,904.0,904.0,904.0,904.0,904.0,904.0,900.0,895.0,895.0,895.0,890.0,890.0,886.0,886.0,886.0,890.0,886.0,886.0,881.0,881.0,886.0,881.0,881.0,877.0,877.0,877.0,877.0,877.0,877.0,877.0,877.0,877.0,877.0,877.0,877.0,877.0,872.0,872.0,872.0,872.0,872.0,872.0,872.0,877.0,872.0,877.0,877.0,881.0,886.0,886.0,886.0,890.0,890.0,890.0,890.0,890.0,895.0,895.0,900.0,900.0,900.0,904.0,904.0,909.0,909.0,909.0,914.0,924.0,919.0,0.0,0.0,0.0,0.0,1000.0,1000.0,0.0,0.0,0.0,3633.0,3633.0,3881.0,3881.0,3971.0,3971.0,4065.0,3971.0,0.0,0.0,0.0,0.0,0.0,0.0,0.0,0.0,0.0,0.0,0.0,0.0,0.0,1315.0,1315.0,1315.0,1315.0,1305.0,1305.0,1305.0,1295.0,1285.0,1285.0,1276.0,1276.0,1276.0,1266.0,1266.0,1257.0,1257.0,1257.0,1248.0,1248.0,1248.0,1239.0,1230.0,1230.0,1221.0,1212.0,1204.0,1204.0,1204.0,1195.0,1346.0,1346.0,1335.0,1325.0,1325.0,1325.0,1325.0,1315.0,1315.0,1315.0,1315.0,1315.0,1315.0,1315.0,1315.0,1315.0,1315.0,1315.0,1315.0,1315.0,1325.0,1325.0,1325.0,1987.0,1987.0,1987.0,1964.0,1964.0,1942.0,1920.0,1920.0,1899.0,1899.0,1899.0,1878.0,1878.0,1878.0,1878.0,1858.0,1858.0,1838.0,1838.0,1838.0,1838.0,1838.0,1838.0,1838.0,1838.0,1838.0,1818.0,1818.0,1818.0,1799.0,1799.0,1799.0,1780.0,1799.0,1780.0,1799.0,1780.0,1780.0,1744.0,1744.0,1744.0,1744.0,1726.0,1692.0,1676.0,1676.0,1659.0,0.0,0.0,0.0,0.0,0.0,0.0,0.0,0.0
2589.0,2550.0,2550.0,2550.0,2550.0,2550.0,2589.0,2589.0,2628.0,2669.0,2669.0,2669.0,2712.0,2712.0,2712.0,2755.0,2755.0,2847.0,2801.0,2847.0,2895.0,2847.0,2895.0,2895.0,2945.0,2945.0,2945.0,2945.0,2997.0,3050.0,3050.0,3050.0,3106.0,3106.0,3106.0,3163.0,3163.0,3163.0,3163.0,3163.0,3223.0,3285.0,3285.0,3285.0,3285.0,3349.0,3349.0,3349.0,3349.0,3349.0,3416.0,3485.0,3485.0,3485.0,3485.0,3558.0,3558.0,3558.0,3558.0,3633.0,3633.0,3712.0,3712.0,3712.0,3712.0,3712.0,3795.0,3795.0,3795.0,3795.0,0.0,0.0,0.0,0.0,0.0,0.0,0.0,0.0,0.0,0.0,0.0,0.0,0.0,0.0,0.0,0.0,977.0,977.0,977.0,977.0,977.0,971.0,971.0,971.0,966.0,960.0,955.0,955.0,955.0,950.0,950.0,944.0,944.0,939.0,939.0,934.0,934.0,929.0,919.0,914.0,914.0,909.0,909.0,904.0,904.0,904.0,904.0,904.0,904.0,895.0,895.0,895.0,895.0,890.0,890.0,890.0,886.0,886.0,886.0,886.0,881.0,881.0,881.0,881.0,881.0,881.0,877.0,877.0,877.0,877.0,877.0,877.0,877.0,877.0,877.0,877.0,877.0,877.0,872.0,872.0,872.0,872.0,872.0,872.0,868.0,872.0,872.0,872.0,872.0,872.0,881.0,881.0,886.0,886.0,890.0,890.0,890.0,890.0,890.0,890.0,890.0,895.0,895.0,900.0,904.0,904.0,904.0,909.0,904.0,914.0,924.0,919.0,0.0,0.0,0.0,0.0,0.0,0.0,0.0,0.0,0.0,3633.0,3881.0,3881.0,3881.0,3971.0,3971.0,4065.0,3971.0,0.0,0.0,0.0,0.0,0.0,0.0,0.0,0.0,0.0,0.0,0.0,1315.0,1315.0,1315.0,1315.0,1315.0,1305.0,1305.0,1295.0,1295.0,1285.0,1276.0,1276.0,1276.0,1276.0,1266.0,1266.0,1257.0,1257.0,1248.0,1248.0,1239.0,1239.0,1239.0,1230.0,1230.0,1230.0,1212.0,1212.0,1204.0,1204.0,1204.0,1195.0,1195.0,1204.0,1335.0,1325.0,1325.0,1315.0,1315.0,1315.0,1315.0,1315.0,1315.0,1315.0,1315.0,1315.0,1315.0,1315.0,1315.0,1315.0,1315.0,1315.0,1315.0,1325.0,2034.0,2010.0,1987.0,1987.0,1987.0,1964.0,1964.0,1920.0,1920.0,1899.0,1899.0,1878.0,1878.0,1878.0,1878.0,1858.0,1858.0,1858.0,1838.0,1838.0,1838.0,1838.0,1838.0,1838.0,1838.0,1818.0,1818.0,1818.0,1818.0,1818.0,1799.0,1799.0,1799.0,0.0,0.0,0.0,1799.0,1799.0,1799.0,0.0,0.0,0.0,0.0,0.0,0.0,1676.0,0.0,0.0,0.0,0.0,0.0,0.0,0.0,0.0,0.0,0.0
